ply
format ascii 1.0
comment PCL generated
element vertex 1086
property float x
property float y
property float z
property uchar red
property uchar green
property uchar blue
property uchar alpha
element camera 0
property float view_px
property float view_py
property float view_pz
property float x_axisx
property float x_axisy
property float x_axisz
property float y_axisx
property float y_axisy
property float y_axisz
property float z_axisx
property float z_axisy
property float z_axisz
property float focal
property float scalex
property float scaley
property float centerx
property float centery
property int viewportx
property int viewporty
property float k1
property float k2
end_header
0.14828192 0.20038097 1.052 27 22 23 0
0.15028572 0.20038097 1.052 26 24 22 0
0.15228952 0.20038097 1.052 26 27 21 0
0.15429334 0.20038097 1.052 26 27 21 0
0.15629715 0.20038097 1.052 26 28 21 0
0.15830095 0.20038097 1.052 26 23 20 0
0.16030477 0.20038097 1.052 23 21 20 0
0.16169144 0.19961907 1.0480001 21 21 18 0
0.16368763 0.19961907 1.0480001 23 21 16 0
0.16568382 0.19961907 1.0480001 26 21 16 0
0.16768001 0.19961907 1.0480001 21 21 16 0
0.16919048 0.19904763 1.0450001 16 19 15 0
0.17118096 0.19904763 1.0450001 19 17 15 0
0.17317145 0.19904763 1.0450001 23 17 15 0
0.17516191 0.19904763 1.0450001 23 17 15 0
0.1771524 0.19904763 1.0450001 23 17 18 0
0.17862858 0.1984762 1.0420001 24 14 21 0
0.18061334 0.1984762 1.0420001 26 14 21 0
0.18207239 0.19790477 1.039 24 14 21 0
0.18405144 0.19790477 1.039 23 15 18 0
0.18603048 0.19790477 1.039 22 17 16 0
0.18800953 0.19790477 1.039 21 18 14 0
0.18998857 0.19790477 1.039 21 19 13 0
0.19196762 0.19790477 1.039 21 18 13 0
0.19394667 0.19790477 1.039 22 17 12 0
0.19536 0.19733332 1.036 23 17 14 0
0.19790477 0.19790477 1.039 21 17 16 0
0.19988382 0.19790477 1.039 20 16 14 0
0.20186286 0.19790477 1.039 21 16 13 0
0.20384191 0.19790477 1.039 23 16 13 0
0.20582095 0.19790477 1.039 23 18 12 0
0.2078 0.19790477 1.039 24 17 9 0
0.20917334 0.19733332 1.036 22 16 6 0
0.21114667 0.19733332 1.036 21 16 10 0
0.21312 0.19733332 1.036 20 14 13 0
0.21509334 0.19733332 1.036 20 14 14 0
0.21706666 0.19733332 1.036 20 14 14 0
0.21904001 0.19733332 1.036 21 18 14 0
0.22037333 0.19676191 1.033 22 17 14 0
0.22234094 0.19676191 1.033 23 17 13 0
0.22496 0.19733332 1.036 23 17 12 0
0.22627619 0.19676191 1.033 23 16 10 0
0.22824381 0.19676191 1.033 21 16 8 0
0.23021142 0.19676191 1.033 20 15 9 0
0.23217905 0.19676191 1.033 19 14 10 0
0.23414667 0.19676191 1.033 19 14 8 0
0.2354286 0.19619049 1.0300001 19 14 7 0
0.2373905 0.19619049 1.0300001 19 13 6 0
0.23935241 0.19619049 1.0300001 17 13 5 0
0.24131431 0.19619049 1.0300001 16 13 9 0
0.24327621 0.19619049 1.0300001 17 14 14 0
0.24523813 0.19619049 1.0300001 18 13 16 0
0.24720003 0.19619049 1.0300001 20 12 19 0
0.24916193 0.19619049 1.0300001 23 14 21 0
0.25185522 0.19676191 1.033 29 17 23 0
0.25382286 0.19676191 1.033 35 21 21 0
0.25579047 0.19676191 1.033 33 26 18 0
0.25850666 0.19733332 1.036 31 23 30 0
0.26047999 0.19733332 1.036 34 21 42 0
0.26245332 0.19733332 1.036 38 19 25 0
0.26442668 0.19733332 1.036 34 17 9 0
0.26717141 0.19790477 1.039 31 14 17 0
0.26915047 0.19790477 1.039 29 11 25 0
0.27112952 0.19790477 1.039 27 18 22 0
0.27468571 0.19904763 1.0450001 26 18 18 0
0.27667621 0.19904763 1.0450001 26 20 21 0
0.27946669 0.19961907 1.0480001 28 24 24 0
0.28253713 0.20038097 1.052 30 24 30 0
0.28535241 0.2009524 1.0550001 37 24 37 0
0.28736192 0.2009524 1.0550001 44 34 29 0
0.28937146 0.2009524 1.0550001 30 45 22 0
0.29220957 0.20152383 1.0580001 17 10 23 0
0.2942248 0.20152383 1.0580001 58 1 25 0
0.29624003 0.20152383 1.0580001 100 138 108 0
0.37207431 0.2497143 1.3110001 254 224 195 0
0.37742859 0.25161907 1.3210001 248 226 198 0
0.37994477 0.25161907 1.3210001 242 222 202 0
0.3839086 0.25257143 1.3260001 242 219 207 0
0.38643432 0.25257143 1.3260001 243 218 202 0
0.38896 0.25257143 1.3260001 244 218 198 0
0.39148575 0.25257143 1.3260001 246 225 203 0
0.39401147 0.25257143 1.3260001 246 232 209 0
0.39653718 0.25257143 1.3260001 246 231 209 0
0.39755812 0.25161907 1.3210001 247 230 209 0
0.4000743 0.25161907 1.3210001 248 232 210 0
0.40259051 0.25161907 1.3210001 250 234 211 0
0.40510669 0.25161907 1.3210001 252 235 214 0
0.40916574 0.25257143 1.3260001 252 236 217 0
0.41013905 0.25161907 1.3210001 252 234 216 0
0.41265526 0.25161907 1.3210001 253 232 216 0
0.41517144 0.25161907 1.3210001 254 237 174 0
0.41926858 0.25257143 1.3260001 254 243 132 0
0.42338479 0.25352383 1.3310001 254 213 108 0
0.42752001 0.25447619 1.3360001 221 184 84 0
0.43360576 0.25657144 1.3470001 189 92 42 0
0.43779051 0.25752383 1.3520001 104 1 1 0
0.44036573 0.25752383 1.3520001 19 1 2 0
0.44490668 0.25866666 1.358 10 1 3 0
0.44749334 0.25866666 1.358 2 1 3 0
0.44809145 0.25752383 1.3520001 12 2 3 0
0.4506667 0.25752383 1.3520001 23 11 4 0
0.45324194 0.25752383 1.3520001 21 9 5 0
0.45581716 0.25752383 1.3520001 20 13 5 0
0.45839241 0.25752383 1.3520001 20 15 5 0
0.46096766 0.25752383 1.3520001 20 14 3 0
0.46182862 0.25657144 1.3470001 18 13 2 0
0.46439433 0.25657144 1.3470001 17 15 6 0
0.46869338 0.25752383 1.3520001 22 17 11 0
0.47126859 0.25752383 1.3520001 27 20 17 0
0.47384384 0.25752383 1.3520001 29 28 23 0
0.47641909 0.25752383 1.3520001 32 24 17 0
-0.58998853 0.24932571 1.296 234 207 196 0
-0.58752 0.24932571 1.296 234 206 191 0
-0.58730865 0.25028765 1.3010001 234 205 191 0
-0.58707815 0.25124952 1.3060001 234 203 192 0
-0.58459055 0.25124952 1.3060001 234 200 194 0
-0.58433145 0.25221145 1.3110001 232 202 197 0
-0.58183432 0.25221145 1.3110001 230 205 194 0
-0.5771277 0.25124952 1.3060001 229 205 192 0
-0.57464004 0.25124952 1.3060001 228 205 198 0
-0.57215244 0.25124952 1.3060001 227 205 204 0
-0.56966484 0.25124952 1.3060001 225 206 203 0
-0.56717718 0.25124952 1.3060001 227 206 203 0
-0.56252766 0.25028765 1.3010001 230 206 201 0
-0.56004959 0.25028765 1.3010001 231 204 199 0
-0.55971438 0.25124952 1.3060001 233 202 192 0
-0.55722672 0.25124952 1.3060001 232 205 186 0
-0.55473912 0.25124952 1.3060001 231 205 192 0
-0.55225152 0.25124952 1.3060001 231 205 198 0
-0.54976386 0.25124952 1.3060001 232 206 200 0
-0.54727626 0.25124952 1.3060001 231 206 202 0
-0.54270291 0.25028765 1.3010001 230 207 201 0
-0.54022479 0.25028765 1.3010001 231 206 201 0
-0.54188007 0.25221145 1.3110001 233 216 201 0
-0.54144001 0.25317335 1.3160001 233 206 201 0
-0.54098099 0.25413525 1.3210001 233 205 201 0
-0.53846484 0.25413525 1.3210001 233 205 202 0
-0.53594857 0.25413525 1.3210001 232 206 199 0
-0.53141338 0.25317335 1.3160001 232 208 197 0
-0.52689719 0.25221145 1.3110001 232 208 199 0
-0.52240002 0.25124952 1.3060001 232 209 202 0
-0.51991242 0.25124952 1.3060001 232 211 203 0
-0.51940572 0.25221145 1.3110001 233 210 204 0
-0.51888001 0.25317335 1.3160001 233 210 203 0
-0.51244956 0.25124952 1.3060001 235 210 202 0
-0.5099619 0.25124952 1.3060001 237 211 202 0
-0.5074743 0.25124952 1.3060001 236 210 202 0
-0.5049867 0.25124952 1.3060001 235 210 203 0
-0.50249904 0.25124952 1.3060001 233 211 204 0
-0.50001144 0.25124952 1.3060001 232 211 203 0
-0.49752381 0.25124952 1.3060001 234 210 202 0
-0.49503621 0.25124952 1.3060001 236 210 200 0
-0.49443436 0.25221145 1.3110001 235 210 198 0
-0.49193719 0.25221145 1.3110001 234 210 201 0
-0.48944005 0.25221145 1.3110001 235 210 204 0
-0.48694289 0.25221145 1.3110001 237 210 203 0
-0.48444575 0.25221145 1.3110001 234 211 203 0
-0.4837867 0.25317335 1.3160001 232 212 202 0
-0.47945148 0.25221145 1.3110001 234 212 201 0
-0.47695431 0.25221145 1.3110001 236 212 199 0
-0.47264764 0.25124952 1.3060001 236 212 198 0
-0.47016004 0.25124952 1.3060001 237 213 201 0
-0.46946287 0.25221145 1.3110001 235 211 204 0
-0.46518478 0.25124952 1.3060001 233 211 205 0
-0.46269718 0.25124952 1.3060001 234 211 206 0
-0.46020955 0.25124952 1.3060001 236 211 202 0
-0.4594743 0.25221145 1.3110001 235 214 198 0
-0.45697719 0.25221145 1.3110001 235 215 200 0
-0.45448002 0.25221145 1.3110001 237 215 203 0
-0.45198289 0.25221145 1.3110001 239 216 190 0
-0.44948575 0.25221145 1.3110001 239 216 177 0
-0.44869336 0.25317335 1.3160001 239 216 188 0
-0.44449145 0.25221145 1.3110001 239 216 200 0
-0.44368005 0.25317335 1.3160001 239 216 202 0
-0.44117334 0.25317335 1.3160001 238 215 205 0
-0.4386667 0.25317335 1.3160001 237 215 204 0
-0.43450287 0.25221145 1.3110001 238 217 204 0
-0.43200576 0.25221145 1.3110001 239 220 203 0
-0.42787051 0.25124952 1.3060001 241 219 203 0
-0.42538288 0.25124952 1.3060001 243 218 204 0
-0.42289528 0.25124952 1.3060001 240 217 205 0
-0.41879812 0.25028765 1.3010001 238 217 207 0
-0.41792002 0.25124952 1.3060001 237 219 209 0
-0.41384193 0.25028765 1.3010001 237 218 200 0
-0.41294479 0.25124952 1.3060001 236 218 192 0
-0.41045716 0.25124952 1.3060001 236 218 200 0
-0.40796956 0.25124952 1.3060001 237 218 208 0
-0.40548193 0.25124952 1.3060001 238 219 208 0
-0.40299433 0.25124952 1.3060001 238 219 209 0
-0.40050671 0.25124952 1.3060001 239 219 210 0
-0.39801908 0.25124952 1.3060001 237 220 212 0
-0.39553148 0.25124952 1.3060001 236 221 218 0
-0.39304385 0.25124952 1.3060001 237 220 224 0
-0.39055622 0.25124952 1.3060001 238 221 221 0
-0.38806862 0.25124952 1.3060001 239 220 218 0
-0.38558099 0.25124952 1.3060001 239 220 217 0
-0.38309339 0.25124952 1.3060001 239 221 216 0
-0.38206288 0.25221145 1.3110001 239 222 217 0
-0.37956575 0.25221145 1.3110001 239 223 218 0
-0.37706858 0.25221145 1.3110001 240 224 219 0
-0.37457144 0.25221145 1.3110001 240 224 220 0
-0.37207431 0.25221145 1.3110001 240 227 224 0
-0.36957717 0.25221145 1.3110001 239 226 229 0
-0.36708 0.25221145 1.3110001 239 225 224 0
-0.3645829 0.25221145 1.3110001 240 225 220 0
-0.36208573 0.25221145 1.3110001 241 225 219 0
-0.35821715 0.25124952 1.3060001 241 225 219 0
-0.35572955 0.25124952 1.3060001 242 226 221 0
-0.35324192 0.25124952 1.3060001 243 227 223 0
-0.35209715 0.25221145 1.3110001 244 229 224 0
-0.34960002 0.25221145 1.3110001 243 229 226 0
-0.34710288 0.25221145 1.3110001 242 229 227 0
-0.34329146 0.25124952 1.3060001 243 230 229 0
-0.34080383 0.25124952 1.3060001 244 236 227 0
-0.33702099 0.25028765 1.3010001 245 229 226 0
-0.33454287 0.25028765 1.3010001 245 229 226 0
-0.24080001 0.18853334 0.98000002 254 248 219 0
-0.23893334 0.18853334 0.98000002 219 209 205 0
-0.23706666 0.18853334 0.98000002 185 147 118 0
-0.2352 0.18853334 0.98000002 189 138 31 0
-0.23261906 0.18795621 0.97700006 194 179 49 0
-0.23075812 0.18795621 0.97700006 157 142 68 0
-0.22819428 0.18737905 0.97400004 120 79 34 0
-0.22633906 0.18737905 0.97400004 92 74 1 0
-0.22448382 0.18737905 0.97400004 65 69 52 0
-0.22262858 0.18737905 0.97400004 77 74 104 0
-0.22032002 0.1869943 0.97200006 90 79 105 0
-0.21846858 0.1869943 0.97200006 93 78 106 0
-0.21661715 0.1869943 0.97200006 96 91 103 0
-0.21476573 0.1869943 0.97200006 93 88 100 0
-0.2129143 0.1869943 0.97200006 90 86 93 0
-0.21106286 0.1869943 0.97200006 79 81 87 0
-0.20921144 0.1869943 0.97200006 68 77 89 0
-0.20672001 0.18641715 0.96900004 90 84 92 0
-0.20487429 0.18641715 0.96900004 113 62 100 0
-0.20302857 0.18641715 0.96900004 121 87 108 0
-0.20118286 0.18641715 0.96900004 129 112 105 0
-0.19933715 0.18641715 0.96900004 142 132 102 0
-0.19749144 0.18641715 0.96900004 156 152 58 0
-0.19564572 0.18641715 0.96900004 167 161 14 0
-0.19440001 0.1869943 0.97200006 179 170 14 0
-0.19254857 0.1869943 0.97200006 183 163 14 0
-0.19108954 0.18737905 0.97400004 188 158 29 0
-0.18981716 0.18795621 0.97700006 187 162 45 0
-0.18853334 0.18853334 0.98000002 187 162 23 0
-0.18666667 0.18853334 0.98000002 189 161 2 0
-0.1848 0.18853334 0.98000002 191 161 3 0
-0.18293333 0.18853334 0.98000002 191 162 5 0
-0.18162096 0.18911049 0.98300004 191 162 3 0
-0.17974858 0.18911049 0.98300004 190 163 1 0
-0.17787619 0.18911049 0.98300004 190 165 1 0
-0.1763619 0.18949525 0.98500007 177 152 1 0
-0.17661142 0.19180381 0.99700004 165 143 92 0
-0.17523809 0.19238095 1 207 184 184 0
-0.17333333 0.19238095 1 250 254 216 0
-0.17142858 0.19238095 1 249 249 248 0
-0.16901524 0.19180381 0.99700004 249 243 242 0
-0.21476571 0.24932571 1.296 246 240 235 0
-0.2147543 0.25221145 1.3110001 246 238 234 0
-0.21306668 0.25317335 1.3160001 245 237 235 0
-0.21056001 0.25317335 1.3160001 246 239 236 0
-0.20805335 0.25317335 1.3160001 247 238 236 0
-0.20554668 0.25317335 1.3160001 247 239 237 0
-0.20304002 0.25317335 1.3160001 247 240 237 0
-0.19977143 0.25221145 1.3110001 246 239 238 0
-0.1972743 0.25221145 1.3110001 245 239 236 0
-0.19477716 0.25221145 1.3110001 246 240 234 0
-0.19301334 0.25317335 1.3160001 247 240 237 0
-0.19050668 0.25317335 1.3160001 246 240 241 0
-0.18800001 0.25317335 1.3160001 245 240 239 0
-0.18478858 0.25221145 1.3110001 245 240 237 0
-0.18298668 0.25317335 1.3160001 245 237 233 0
-0.1797943 0.25221145 1.3110001 246 239 229 0
-0.17729716 0.25221145 1.3110001 246 239 232 0
-0.17480001 0.25221145 1.3110001 245 237 236 0
-0.17296001 0.25317335 1.3160001 245 236 237 0
-0.17045334 0.25317335 1.3160001 245 239 238 0
-0.16730858 0.25221145 1.3110001 245 242 237 0
-0.16544002 0.25317335 1.3160001 245 232 236 0
-0.1623143 0.25221145 1.3110001 245 234 235 0
-0.15981716 0.25221145 1.3110001 247 235 234 0
-0.15792 0.25317335 1.3160001 249 236 238 0
-0.15482287 0.25221145 1.3110001 246 242 243 0
-0.15232573 0.25221145 1.3110001 244 248 232 0
-0.15154287 0.25509715 1.3260001 210 231 221 0
-0.14901716 0.25509715 1.3260001 177 215 202 0
-0.14649144 0.25509715 1.3260001 142 127 184 0
-0.14450859 0.25605908 1.3310001 108 39 152 0
-0.14197333 0.25605908 1.3310001 86 20 120 0
-0.12770477 0.2345124 1.2190001 64 1 67 0
-0.12538287 0.2345124 1.2190001 48 24 14 0
-0.12306096 0.2345124 1.2190001 32 55 38 0
-0.12331428 0.23951429 1.245 45 54 63 0
-0.12094285 0.23951429 1.245 58 54 64 0
-0.11857143 0.23951429 1.245 61 52 66 0
-0.11657334 0.24028383 1.2490001 65 51 60 0
-0.11465143 0.24124573 1.2540001 61 51 54 0
-0.11226286 0.24124573 1.2540001 58 51 54 0
-0.10987429 0.24124573 1.2540001 54 49 54 0
-0.10705715 0.24028383 1.2490001 51 45 46 0
-0.10467809 0.24028383 1.2490001 52 44 38 0
-0.09771239 0.2295105 1.1930001 54 44 41 0
-0.095440008 0.2295105 1.1930001 53 48 44 0
-0.093167625 0.2295105 1.1930001 51 49 34 0
-0.090895243 0.2295105 1.1930001 49 45 24 0
-0.088325717 0.22874096 1.189 47 39 22 0
-0.085771434 0.22797143 1.1850001 42 36 20 0
-0.083514288 0.22797143 1.1850001 37 30 12 0
-0.079062857 0.22181524 1.153 37 30 4 0
-0.076666676 0.22123811 1.1500001 37 31 15 0
-0.074476197 0.22123811 1.1500001 37 31 26 0
-0.072034284 0.22046857 1.146 38 31 22 0
-0.06936381 0.21892953 1.138 35 28 18 0
-0.06719619 0.21892953 1.138 33 27 19 0
-0.064800002 0.21816 1.1340001 34 25 20 0
-0.062253337 0.21681336 1.1270001 36 32 15 0
-0.060106672 0.21681336 1.1270001 38 33 10 0
-0.057960004 0.21681336 1.1270001 40 39 18 0
-0.055466667 0.21546666 1.12 40 35 26 0
-0.053333335 0.21546666 1.12 41 34 22 0
-0.051200002 0.21546666 1.12 38 33 19 0
-0.048409525 0.21258095 1.105 36 32 18 0
-0.046304762 0.21258095 1.105 35 29 18 0
-0.044199999 0.21258095 1.105 33 27 14 0
-0.04209524 0.21258095 1.105 31 25 11 0
-0.039990477 0.21258095 1.105 28 26 21 0
-0.037782859 0.21200381 1.102 35 25 31 0
-0.035683807 0.21200381 1.102 42 17 28 0
-0.033584762 0.21200381 1.102 47 17 25 0
-0.031485714 0.21200381 1.102 53 17 35 0
-0.029199999 0.21065715 1.095 50 18 45 0
-0.027114287 0.21065715 1.095 47 19 33 0
-0.025028571 0.21065715 1.095 35 20 21 0
-0.022942858 0.21065715 1.095 24 22 21 0
-0.020857144 0.21065715 1.095 29 25 21 0
-0.018771429 0.21065715 1.095 35 28 21 0
-0.016685715 0.21065715 1.095 34 28 22 0
-0.014599999 0.21065715 1.095 33 28 23 0
-0.012514286 0.21065715 1.095 32 29 25 0
-0.010457143 0.21123429 1.098 32 30 25 0
-0.0083428575 0.21065715 1.095 36 29 25 0
-0.0062571429 0.21065715 1.095 40 29 25 0
-0.0041714287 0.21065715 1.095 39 29 25 0
-0.0020857144 0.21065715 1.095 38 32 26 0
0 0.21065715 1.095 37 32 27 0
0.0020780955 0.20988764 1.0910001 36 32 30 0
0.0041561909 0.20988764 1.0910001 37 31 34 0
0.0062342859 0.20988764 1.0910001 38 31 41 0
0.0083123818 0.20988764 1.0910001 37 33 49 0
0.010390477 0.20988764 1.0910001 37 38 38 0
0.012468572 0.20988764 1.0910001 36 31 28 0
0.014546667 0.20988764 1.0910001 35 29 31 0
0.016624764 0.20988764 1.0910001 34 26 34 0
0.018702857 0.20988764 1.0910001 33 24 28 0
0.02072381 0.20931049 1.0880001 29 21 22 0
0.022733334 0.20873335 1.085 25 19 23 0
0.024800001 0.20873335 1.085 24 16 25 0
0.026866667 0.20873335 1.085 23 13 19 0
0.029013334 0.20931049 1.0880001 22 13 14 0
0.031000003 0.20873335 1.085 22 14 12 0
0.032944765 0.20796382 1.0810001 21 14 10 0
0.035133332 0.20873335 1.085 20 14 9 0
0.0372 0.20873335 1.085 20 14 8 0
0.039266668 0.20873335 1.085 20 14 12 0
0.041333333 0.20873335 1.085 18 15 16 0
0.043240003 0.20796382 1.0810001 15 16 15 0
0.045299049 0.20796382 1.0810001 18 15 15 0
0.047358099 0.20796382 1.0810001 20 13 18 0
0.049280003 0.20738667 1.0780001 21 12 22 0
0.051476192 0.20796382 1.0810001 21 12 18 0
0.05338667 0.20738667 1.0780001 20 14 15 0
0.055440005 0.20738667 1.0780001 19 14 15 0
0.057493336 0.20738667 1.0780001 20 14 16 0
0.059546668 0.20738667 1.0780001 21 14 16 0
0.061600007 0.20738667 1.0780001 19 15 17 0
0.063417137 0.20661713 1.074 17 17 10 0
0.065462857 0.20661713 1.074 18 15 4 0
0.067508571 0.20661713 1.074 20 15 11 0
0.069813333 0.20738667 1.0780001 19 17 18 0
0.071866669 0.20738667 1.0780001 19 17 17 0
0.073920004 0.20738667 1.0780001 19 16 17 0
0.075691424 0.20661713 1.074 20 15 13 0
0.078026675 0.20738667 1.0780001 20 17 10 0
0.079782858 0.20661713 1.074 21 20 12 0
0.081828572 0.20661713 1.074 24 20 14 0
0.083640002 0.20604002 1.0710001 27 20 14 0
0.08568 0.20604002 1.0710001 25 21 15 0
0.087720007 0.20604002 1.0710001 23 22 16 0
0.089508578 0.20546287 1.0680001 26 22 17 0
0.091542862 0.20546287 1.0680001 29 22 17 0
0.093577147 0.20546287 1.0680001 28 23 18 0
0.095611431 0.20546287 1.0680001 28 25 26 0
0.097645722 0.20546287 1.0680001 29 24 34 0
0.099306665 0.20469333 1.064 30 23 25 0
0.10133334 0.20469333 1.064 29 21 16 0
0.10336 0.20469333 1.064 29 21 16 0
0.10538667 0.20469333 1.064 28 21 16 0
0.10741334 0.20469333 1.064 28 21 19 0
0.10944 0.20469333 1.064 28 21 22 0
0.11146667 0.20469333 1.064 28 21 19 0
0.11349333 0.20469333 1.064 28 21 16 0
0.11519429 0.20411621 1.0610001 28 21 16 0
0.11721525 0.20411621 1.0610001 29 23 16 0
0.11889905 0.20353906 1.0580001 30 25 12 0
0.12091429 0.20353906 1.0580001 28 25 8 0
0.12258096 0.20296192 1.0550001 27 27 8 0
0.12494478 0.20353906 1.0580001 27 27 8 0
0.12696001 0.20353906 1.0580001 27 22 11 0
0.12897524 0.20353906 1.0580001 26 21 15 0
0.13099049 0.20353906 1.0580001 26 21 12 0
0.13262857 0.20296192 1.0550001 27 21 10 0
0.1346381 0.20296192 1.0550001 28 24 13 0
0.13664763 0.20296192 1.0550001 29 21 17 0
0.13865715 0.20296192 1.0550001 31 19 22 0
0.14066668 0.20296192 1.0550001 29 18 28 0
0.1426762 0.20296192 1.0550001 28 17 28 0
0.14427429 0.20238477 1.052 28 17 28 0
0.1462781 0.20238477 1.052 29 18 24 0
0.14828192 0.20238477 1.052 27 18 20 0
0.15028572 0.20238477 1.052 26 19 20 0
0.15228952 0.20238477 1.052 25 20 21 0
0.15429334 0.20238477 1.052 25 21 21 0
0.15629715 0.20238477 1.052 24 20 21 0
0.15830095 0.20238477 1.052 24 19 20 0
0.15969525 0.20161524 1.0480001 21 19 20 0
0.16169144 0.20161524 1.0480001 17 20 20 0
0.16368763 0.20161524 1.0480001 21 20 20 0
0.16568382 0.20161524 1.0480001 25 20 18 0
0.16720001 0.20103811 1.0450001 22 19 17 0
0.16919048 0.20103811 1.0450001 19 18 14 0
0.17118096 0.20103811 1.0450001 21 17 11 0
0.17317145 0.20103811 1.0450001 23 17 11 0
0.17516191 0.20103811 1.0450001 23 17 12 0
0.17664382 0.20046096 1.0420001 23 17 14 0
0.17862858 0.20046096 1.0420001 23 14 16 0
0.18061334 0.20046096 1.0420001 23 11 16 0
0.18207239 0.19988382 1.039 24 12 17 0
0.18405144 0.19988382 1.039 26 12 14 0
0.18603048 0.19988382 1.039 23 13 11 0
0.18800953 0.19988382 1.039 20 14 10 0
0.18998857 0.19988382 1.039 20 15 10 0
0.19196762 0.19988382 1.039 21 16 7 0
0.19394667 0.19988382 1.039 21 15 4 0
0.19536 0.19930667 1.036 21 12 7 0
0.19733332 0.19930667 1.036 20 16 11 0
0.19930667 0.19930667 1.036 20 16 11 0
0.20186286 0.19988382 1.039 21 16 11 0
0.20384191 0.19988382 1.039 22 17 9 0
0.20522667 0.19930667 1.036 22 17 7 0
0.20719999 0.19930667 1.036 23 17 4 0
0.20917334 0.19930667 1.036 22 16 1 0
0.21114667 0.19930667 1.036 21 16 5 0
0.21373715 0.19988382 1.039 20 14 9 0
0.21509334 0.19930667 1.036 20 14 9 0
0.21706666 0.19930667 1.036 20 14 10 0
0.21904001 0.19930667 1.036 20 17 10 0
0.22037333 0.19872952 1.033 20 16 10 0
0.22234094 0.19872952 1.033 20 15 10 0
0.22496 0.19930667 1.036 20 15 10 0
0.22627619 0.19872952 1.033 21 15 9 0
0.22824381 0.19872952 1.033 20 14 9 0
0.22954287 0.19815239 1.0300001 19 14 9 0
0.23150478 0.19815239 1.0300001 19 14 9 0
0.23346668 0.19815239 1.0300001 19 14 6 0
0.2354286 0.19815239 1.0300001 17 13 4 0
0.2373905 0.19815239 1.0300001 16 13 2 0
0.23935241 0.19815239 1.0300001 16 13 1 0
0.24131431 0.19815239 1.0300001 17 12 7 0
0.24327621 0.19815239 1.0300001 17 12 14 0
0.24523813 0.19815239 1.0300001 18 11 17 0
0.24720003 0.19815239 1.0300001 19 12 20 0
0.24916193 0.19815239 1.0300001 20 10 23 0
0.25185522 0.19872952 1.033 24 15 26 0
0.25382286 0.19872952 1.033 28 18 23 0
0.25653335 0.19930667 1.036 27 17 20 0
0.25850666 0.19930667 1.036 26 16 21 0
0.26047999 0.19930667 1.036 29 15 23 0
0.26321337 0.19988382 1.039 32 14 20 0
0.26519236 0.19988382 1.039 29 13 17 0
0.26717141 0.19988382 1.039 26 13 17 0
0.26915047 0.19988382 1.039 25 15 18 0
0.2719124 0.20046096 1.0420001 24 17 17 0
0.27389714 0.20046096 1.0420001 25 18 16 0
0.27667621 0.20103811 1.0450001 26 20 19 0
0.27946669 0.20161524 1.0480001 28 20 23 0
0.28253713 0.20238477 1.052 31 21 31 0
0.28535241 0.20296192 1.0550001 36 24 40 0
0.28736192 0.20296192 1.0550001 42 32 28 0
0.28937146 0.20296192 1.0550001 25 37 16 0
0.29138097 0.20296192 1.0550001 9 1 33 0
0.29339051 0.20296192 1.0550001 69 1 50 0
0.29624003 0.20353906 1.0580001 129 180 138 0
0.36816764 0.25124952 1.3060001 191 230 227 0
0.37207431 0.25221145 1.3110001 253 249 227 0
0.37457144 0.25221145 1.3110001 247 227 227 0
0.37706858 0.25221145 1.3110001 242 230 226 0
0.38101336 0.25317335 1.3160001 242 231 225 0
0.38352004 0.25317335 1.3160001 243 232 226 0
0.38749337 0.25413525 1.3210001 244 234 228 0
0.39000955 0.25413525 1.3210001 246 236 229 0
0.39252573 0.25413525 1.3210001 245 231 231 0
0.39504194 0.25413525 1.3210001 245 233 231 0
0.39605334 0.25317335 1.3160001 245 234 232 0
0.39856002 0.25317335 1.3160001 246 235 232 0
0.40106669 0.25317335 1.3160001 247 233 233 0
0.40357336 0.25317335 1.3160001 249 244 233 0
0.40608004 0.25317335 1.3160001 248 235 234 0
0.40858668 0.25317335 1.3160001 247 235 234 0
0.41109335 0.25317335 1.3160001 248 232 234 0
0.41360003 0.25317335 1.3160001 249 242 241 0
0.41768762 0.25413525 1.3210001 250 244 248 0
0.42020383 0.25413525 1.3210001 251 246 208 0
0.42432004 0.25509715 1.3260001 236 235 168 0
0.42845526 0.25605908 1.3310001 221 225 84 0
0.43617147 0.25913715 1.3470001 179 156 1 0
0.44036573 0.26009908 1.3520001 136 87 1 0
0.44490668 0.26125333 1.358 97 45 1 0
0.44749334 0.26125333 1.358 58 3 1 0
0.44809145 0.26009908 1.3520001 35 1 1 0
0.4506667 0.26009908 1.3520001 12 9 1 0
0.45324194 0.26009908 1.3520001 14 10 1 0
0.45581716 0.26009908 1.3520001 17 11 2 0
0.45839241 0.26009908 1.3520001 18 12 4 0
0.45926291 0.25913715 1.3470001 20 14 2 0
0.46182862 0.25913715 1.3470001 19 14 1 0
0.46439433 0.25913715 1.3470001 17 14 8 0
0.46696004 0.25913715 1.3470001 21 15 15 0
0.46952575 0.25913715 1.3470001 25 16 24 0
0.47384384 0.26009908 1.3520001 27 21 34 0
0.47641909 0.26009908 1.3520001 29 26 22 0
0.47899431 0.26009908 1.3520001 33 21 11 0
-0.5901714 0.25082287 1.291 232 206 204 0
-0.58771241 0.25082287 1.291 231 205 199 0
-0.5852533 0.25082287 1.291 231 200 195 0
-0.58505142 0.25179428 1.296 231 201 194 0
-0.58483052 0.25276574 1.3010001 234 202 194 0
-0.5823524 0.25276574 1.3010001 238 202 195 0
-0.58210289 0.25373715 1.3060001 234 203 196 0
-0.57961529 0.25373715 1.3060001 231 205 195 0
-0.57491815 0.25276574 1.3010001 230 205 194 0
-0.57244009 0.25276574 1.3010001 230 206 198 0
-0.56996197 0.25276574 1.3010001 229 209 202 0
-0.56748384 0.25276574 1.3010001 229 207 202 0
-0.56283426 0.25179428 1.296 229 206 203 0
-0.56252766 0.25276574 1.3010001 230 207 201 0
-0.55789715 0.25179428 1.296 231 201 199 0
-0.55757147 0.25276574 1.3010001 232 202 196 0
-0.55509335 0.25276574 1.3010001 231 204 193 0
-0.55261528 0.25276574 1.3010001 231 206 197 0
-0.54802287 0.25179428 1.296 231 210 201 0
-0.5476591 0.25276574 1.3010001 232 210 203 0
-0.54518104 0.25276574 1.3010001 230 210 206 0
-0.54061717 0.25179428 1.296 229 207 204 0
-0.53607237 0.25082287 1.291 230 207 202 0
-0.53774667 0.25276574 1.3010001 232 207 199 0
-0.5352686 0.25276574 1.3010001 233 207 197 0
-0.53279054 0.25276574 1.3010001 235 205 199 0
-0.5282743 0.25179428 1.296 234 204 201 0
-0.52783436 0.25276574 1.3010001 233 206 199 0
-0.52333719 0.25179428 1.296 233 209 198 0
-0.52086854 0.25179428 1.296 233 210 201 0
-0.51640004 0.25082287 1.291 232 211 204 0
-0.51394093 0.25082287 1.291 232 211 202 0
-0.51148194 0.25082287 1.291 232 211 201 0
-0.5129658 0.25276574 1.3010001 233 211 199 0
-0.50852573 0.25179428 1.296 233 211 197 0
-0.50605714 0.25179428 1.296 234 210 200 0
-0.50553149 0.25276574 1.3010001 234 210 204 0
-0.50305337 0.25276574 1.3010001 234 211 206 0
-0.5005753 0.25276574 1.3010001 231 213 209 0
-0.49618286 0.25179428 1.296 229 213 206 0
-0.49561906 0.25276574 1.3010001 232 213 203 0
-0.49314097 0.25276574 1.3010001 235 210 198 0
-0.49254858 0.25373715 1.3060001 234 211 194 0
-0.49006099 0.25373715 1.3060001 233 210 198 0
-0.48570669 0.25276574 1.3010001 234 212 203 0
-0.48322862 0.25276574 1.3010001 235 212 203 0
-0.48259816 0.25373715 1.3060001 234 212 204 0
-0.48194861 0.25470859 1.3110001 234 212 204 0
-0.47762287 0.25373715 1.3060001 235 213 203 0
-0.47513527 0.25373715 1.3060001 236 213 202 0
-0.47083813 0.25276574 1.3010001 235 213 202 0
-0.46836004 0.25276574 1.3010001 235 213 203 0
-0.46767241 0.25373715 1.3060001 233 211 204 0
-0.46518478 0.25373715 1.3060001 231 211 205 0
-0.46092576 0.25276574 1.3010001 233 211 205 0
-0.45668569 0.25179428 1.296 235 212 203 0
-0.45421714 0.25179428 1.296 234 215 201 0
-0.45523432 0.25373715 1.3060001 234 216 203 0
-0.45274669 0.25373715 1.3060001 236 206 206 0
-0.45025909 0.25373715 1.3060001 238 217 198 0
-0.44777146 0.25373715 1.3060001 239 217 191 0
-0.44528383 0.25373715 1.3060001 241 217 198 0
-0.44110098 0.25276574 1.3010001 241 218 205 0
-0.43862289 0.25276574 1.3010001 242 217 206 0
-0.43949717 0.25470859 1.3110001 239 215 208 0
-0.43700004 0.25470859 1.3110001 237 215 207 0
-0.43284574 0.25373715 1.3060001 238 218 206 0
-0.43035811 0.25373715 1.3060001 239 218 205 0
-0.42787051 0.25373715 1.3060001 242 218 205 0
-0.42375433 0.25276574 1.3010001 245 217 206 0
-0.42127621 0.25276574 1.3010001 242 216 207 0
-0.41879812 0.25276574 1.3010001 239 217 209 0
-0.41632003 0.25276574 1.3010001 238 219 211 0
-0.41225144 0.25179428 1.296 237 219 207 0
-0.40978286 0.25179428 1.296 235 219 203 0
-0.40731427 0.25179428 1.296 233 219 207 0
-0.40640765 0.25276574 1.3010001 235 220 211 0
-0.40392956 0.25276574 1.3010001 238 220 212 0
-0.40145147 0.25276574 1.3010001 237 221 214 0
-0.39897335 0.25276574 1.3010001 237 221 213 0
-0.39801908 0.25373715 1.3060001 236 221 213 0
-0.39553148 0.25373715 1.3060001 235 221 217 0
-0.39304385 0.25373715 1.3060001 236 220 221 0
-0.38906097 0.25276574 1.3010001 238 220 220 0
-0.38806862 0.25373715 1.3060001 238 221 218 0
-0.38558099 0.25373715 1.3060001 239 221 217 0
-0.3816267 0.25276574 1.3010001 239 222 216 0
-0.38060576 0.25373715 1.3060001 239 221 217 0
-0.37811813 0.25373715 1.3060001 240 224 218 0
-0.37706858 0.25470859 1.3110001 241 224 218 0
-0.3731429 0.25373715 1.3060001 241 225 217 0
-0.37065524 0.25373715 1.3060001 242 227 221 0
-0.36816764 0.25373715 1.3060001 241 228 225 0
-0.36568001 0.25373715 1.3060001 240 224 221 0
-0.36319241 0.25373715 1.3060001 241 226 217 0
-0.36070478 0.25373715 1.3060001 242 226 218 0
-0.35684577 0.25276574 1.3010001 242 227 219 0
-0.35436764 0.25276574 1.3010001 243 227 220 0
-0.35188955 0.25276574 1.3010001 243 228 221 0
-0.35075429 0.25373715 1.3060001 244 228 223 0
-0.34826669 0.25373715 1.3060001 243 229 224 0
-0.34577906 0.25373715 1.3060001 242 229 224 0
-0.34197715 0.25276574 1.3010001 243 230 224 0
-0.33949909 0.25276574 1.3010001 245 231 224 0
-0.33572569 0.25179428 1.296 245 232 225 0
-0.33325714 0.25179428 1.296 245 231 226 0
-0.33078858 0.25179428 1.296 243 231 227 0
-0.24080001 0.19039999 0.98000002 254 244 209 0
-0.23893334 0.19039999 0.98000002 222 215 186 0
-0.23706666 0.19039999 0.98000002 190 149 105 0
-0.2352 0.19039999 0.98000002 192 133 24 0
-0.23261906 0.18981716 0.97700006 195 179 37 0
-0.23075812 0.18981716 0.97700006 161 146 50 0
-0.22889715 0.18981716 0.97700006 128 83 31 0
-0.22633906 0.1892343 0.97400004 97 21 12 0
-0.22448382 0.1892343 0.97400004 67 68 56 0
-0.22262858 0.1892343 0.97400004 81 82 101 0
-0.22032002 0.18884572 0.97200006 95 79 101 0
-0.21846858 0.18884572 0.97200006 93 80 102 0
-0.21661715 0.18884572 0.97200006 91 79 97 0
-0.21476573 0.18884572 0.97200006 87 79 93 0
-0.2129143 0.18884572 0.97200006 83 102 89 0
-0.21106286 0.18884572 0.97200006 63 3 85 0
-0.20921144 0.18884572 0.97200006 44 76 94 0
-0.20672001 0.18826286 0.96900004 96 88 103 0
-0.20487429 0.18826286 0.96900004 149 111 83 0
-0.20302857 0.18826286 0.96900004 165 135 63 0
-0.20118286 0.18826286 0.96900004 182 145 57 0
-0.19933715 0.18826286 0.96900004 183 155 52 0
-0.19749144 0.18826286 0.96900004 185 152 29 0
-0.19564572 0.18826286 0.96900004 186 162 7 0
-0.19440001 0.18884572 0.97200006 187 160 8 0
-0.19254857 0.18884572 0.97200006 185 159 9 0
-0.19108954 0.1892343 0.97400004 183 157 18 0
-0.18981716 0.18981716 0.97700006 184 162 27 0
-0.18853334 0.19039999 0.98000002 186 162 14 0
-0.18666667 0.19039999 0.98000002 188 164 1 0
-0.1848 0.19039999 0.98000002 191 163 11 0
-0.18349335 0.19098286 0.98300004 191 162 22 0
-0.18162096 0.19098286 0.98300004 191 162 12 0
-0.17974858 0.19098286 0.98300004 191 163 3 0
-0.17823811 0.19137144 0.98500007 191 165 2 0
-0.1774362 0.19253716 0.99100006 180 157 1 0
-0.17554857 0.19253716 0.99100006 169 141 92 0
-0.17471239 0.19370286 0.99700004 211 189 184 0
-0.17281334 0.19370286 0.99700004 254 253 214 0
-0.17142858 0.19428571 1 252 251 245 0
-0.2172343 0.25179428 1.296 247 233 236 0
-0.21393715 0.25082287 1.291 245 232 233 0
-0.2131162 0.25276574 1.3010001 245 232 231 0
-0.21144764 0.25373715 1.3060001 245 237 233 0
-0.20896001 0.25373715 1.3060001 246 239 235 0
-0.2064724 0.25373715 1.3060001 247 239 236 0
-0.20398478 0.25373715 1.3060001 247 239 237 0
-0.20226859 0.25470859 1.3110001 247 239 237 0
-0.19900954 0.25373715 1.3060001 246 240 238 0
-0.19652192 0.25373715 1.3060001 245 240 237 0
-0.19403431 0.25373715 1.3060001 245 240 236 0
-0.19228001 0.25470859 1.3110001 246 240 238 0
-0.18978287 0.25470859 1.3110001 245 240 240 0
-0.18728572 0.25470859 1.3110001 245 240 239 0
-0.18408382 0.25373715 1.3060001 245 239 238 0
-0.18229145 0.25470859 1.3110001 245 238 235 0
-0.17910857 0.25373715 1.3060001 246 239 233 0
-0.17662096 0.25373715 1.3060001 247 237 234 0
-0.17413335 0.25373715 1.3060001 245 235 236 0
-0.17164573 0.25373715 1.3060001 244 234 236 0
-0.16980574 0.25470859 1.3110001 244 234 237 0
-0.16667049 0.25373715 1.3060001 244 234 237 0
-0.16418287 0.25373715 1.3060001 245 235 237 0
-0.16169526 0.25373715 1.3060001 246 236 239 0
-0.15920763 0.25373715 1.3060001 250 238 241 0
-0.15672001 0.25373715 1.3060001 254 244 224 0
-0.1542324 0.25373715 1.3060001 244 252 207 0
-0.15174478 0.25373715 1.3060001 235 204 181 0
-0.14925715 0.25373715 1.3060001 167 156 155 0
-0.14676954 0.25373715 1.3060001 100 78 132 0
-0.14428192 0.25373715 1.3060001 51 1 109 0
-0.13137142 0.23508573 1.21 3 4 98 0
-0.12906668 0.23508573 1.21 25 8 88 0
-0.12770477 0.2368343 1.2190001 47 27 61 0
-0.12538287 0.2368343 1.2190001 54 47 34 0
-0.12306096 0.2368343 1.2190001 62 49 46 0
-0.12073906 0.2368343 1.2190001 61 51 59 0
-0.11968001 0.23936002 1.2320001 60 49 59 0
-0.11771429 0.24013714 1.2360001 60 48 58 0
-0.11573333 0.24091429 1.24 61 50 55 0
-0.11300572 0.24013714 1.2360001 58 53 51 0
-0.11100952 0.24091429 1.24 56 49 51 0
-0.10864762 0.24091429 1.24 51 47 50 0
-0.10594286 0.24013714 1.2360001 46 44 46 0
-0.10358857 0.24013714 1.2360001 49 44 42 0
-0.097384758 0.23100571 1.189 53 45 46 0
-0.095119998 0.23100571 1.189 51 47 49 0
-0.092855237 0.23100571 1.189 50 46 39 0
-0.090285718 0.23022857 1.1850001 48 46 29 0
-0.08802858 0.23022857 1.1850001 47 40 27 0
-0.085481912 0.22945145 1.1810001 43 38 25 0
-0.082386672 0.22712001 1.169 39 36 18 0
-0.079885721 0.22634287 1.1650001 38 34 12 0
-0.077133335 0.22478858 1.1570001 37 32 19 0
-0.074476197 0.22342859 1.1500001 39 31 26 0
-0.072034284 0.22265144 1.146 42 30 24 0
-0.069607623 0.2218743 1.1420001 39 30 23 0
-0.06719619 0.22109714 1.138 36 28 17 0
-0.064800002 0.22032002 1.1340001 36 27 12 0
-0.062032383 0.21818286 1.123 37 28 12 0
-0.059893332 0.21818286 1.123 39 35 13 0
-0.057754286 0.21818286 1.123 41 36 17 0
-0.055466667 0.21759999 1.12 43 37 21 0
-0.052809529 0.21546288 1.1090001 45 35 19 0
-0.050697144 0.21546288 1.1090001 41 34 18 0
-0.048409525 0.21468571 1.105 37 31 17 0
-0.046472386 0.21546288 1.1090001 35 29 17 0
-0.044199999 0.21468571 1.105 33 28 20 0
-0.04209524 0.21468571 1.105 30 25 24 0
-0.039990477 0.21468571 1.105 27 25 24 0
-0.037782859 0.21410285 1.102 38 26 24 0
-0.035683807 0.21410285 1.102 50 35 44 0
-0.03346286 0.21332571 1.098 62 83 64 0
-0.03137143 0.21332571 1.098 75 71 53 0
-0.029199999 0.21274287 1.095 65 59 43 0
-0.027114287 0.21274287 1.095 55 41 34 0
-0.025028571 0.21274287 1.095 32 7 25 0
-0.02285905 0.21196572 1.0910001 10 21 18 0
-0.020857144 0.21274287 1.095 20 15 11 0
-0.018702857 0.21196572 1.0910001 31 16 15 0
-0.016624764 0.21196572 1.0910001 29 17 20 0
-0.014599999 0.21274287 1.095 28 19 21 0
-0.012514286 0.21274287 1.095 27 22 21 0
-0.010457143 0.21332571 1.098 26 23 21 0
-0.0083428575 0.21274287 1.095 29 25 21 0
-0.0062571429 0.21274287 1.095 33 27 24 0
-0.0041714287 0.21274287 1.095 35 29 27 0
-0.0020857144 0.21274287 1.095 37 29 34 0
0 0.21196572 1.0910001 38 39 41 0
0.0020780955 0.21196572 1.0910001 39 31 36 0
0.0041447622 0.21138287 1.0880001 39 36 31 0
0.006217143 0.21138287 1.0880001 39 35 36 0
0.0083123818 0.21196572 1.0910001 36 34 41 0
0.010361905 0.21138287 1.0880001 34 31 33 0
0.012434286 0.21138287 1.0880001 32 29 24 0
0.014466667 0.21080001 1.085 31 25 21 0
0.016533334 0.21080001 1.085 29 21 18 0
0.01865143 0.21138287 1.0880001 28 20 17 0
0.020666666 0.21080001 1.085 24 19 16 0
0.022733334 0.21080001 1.085 21 16 17 0
0.024708573 0.21002287 1.0810001 21 14 17 0
0.026767621 0.21002287 1.0810001 21 14 14 0
0.028826667 0.21002287 1.0810001 20 14 11 0
0.030885719 0.21002287 1.0810001 20 14 9 0
0.032944765 0.21002287 1.0810001 19 15 7 0
0.035003811 0.21002287 1.0810001 19 14 6 0
0.0372 0.21080001 1.085 18 14 6 0
0.039266668 0.21080001 1.085 18 14 9 0
0.041180957 0.21002287 1.0810001 15 15 12 0
0.043400001 0.21080001 1.085 12 15 10 0
0.045173336 0.20944001 1.0780001 15 15 9 0
0.047226671 0.20944001 1.0780001 18 14 12 0
0.049280003 0.20944001 1.0780001 19 14 15 0
0.051333334 0.20944001 1.0780001 20 14 13 0
0.05338667 0.20944001 1.0780001 20 14 11 0
0.055440005 0.20944001 1.0780001 21 14 12 0
0.057493336 0.20944001 1.0780001 21 15 14 0
0.059546668 0.20944001 1.0780001 21 14 15 0
0.061600007 0.20944001 1.0780001 20 14 17 0
0.063417137 0.20866285 1.074 20 14 14 0
0.065462857 0.20866285 1.074 21 15 11 0
0.067508571 0.20866285 1.074 23 16 15 0
0.069813333 0.20944001 1.0780001 23 17 19 0
0.071866669 0.20944001 1.0780001 24 17 17 0
0.073920004 0.20944001 1.0780001 23 17 15 0
0.075691424 0.20866285 1.074 23 18 12 0
0.077737145 0.20866285 1.074 23 19 9 0
0.079782858 0.20866285 1.074 24 20 12 0
0.081828572 0.20866285 1.074 27 21 15 0
0.083640002 0.20808002 1.0710001 31 20 15 0
0.08568 0.20808002 1.0710001 29 18 15 0
0.087720007 0.20808002 1.0710001 28 23 17 0
0.089508578 0.20749715 1.0680001 30 24 18 0
0.091542862 0.20749715 1.0680001 32 25 17 0
0.093577147 0.20749715 1.0680001 31 26 15 0
0.095611431 0.20749715 1.0680001 30 25 20 0
0.097645722 0.20749715 1.0680001 30 23 26 0
0.099306665 0.20671999 1.064 30 22 20 0
0.10133334 0.20671999 1.064 29 21 15 0
0.10336 0.20671999 1.064 28 21 15 0
0.10538667 0.20671999 1.064 27 22 15 0
0.10741334 0.20671999 1.064 27 20 16 0
0.10944 0.20671999 1.064 27 20 18 0
0.11146667 0.20671999 1.064 27 21 16 0
0.11317335 0.20613715 1.0610001 27 21 15 0
0.11519429 0.20613715 1.0610001 27 21 16 0
0.11688382 0.20555429 1.0580001 27 21 17 0
0.11856191 0.20497145 1.0550001 28 23 13 0
0.12091429 0.20555429 1.0580001 25 26 10 0
0.12258096 0.20497145 1.0550001 23 26 10 0
0.12459048 0.20497145 1.0550001 23 26 10 0
0.12660001 0.20497145 1.0550001 23 21 14 0
0.12897524 0.20555429 1.0580001 24 22 19 0
0.13061905 0.20497145 1.0550001 25 21 15 0
0.13262857 0.20497145 1.0550001 25 20 11 0
0.1346381 0.20497145 1.0550001 25 18 12 0
0.13664763 0.20497145 1.0550001 30 17 14 0
0.13865715 0.20497145 1.0550001 35 15 17 0
0.14066668 0.20497145 1.0550001 32 14 20 0
0.14227048 0.20438857 1.052 29 14 21 0
0.14427429 0.20438857 1.052 29 14 23 0
0.1462781 0.20438857 1.052 30 15 19 0
0.14828192 0.20438857 1.052 28 16 16 0
0.15028572 0.20438857 1.052 26 16 16 0
0.15228952 0.20438857 1.052 25 17 16 0
0.15429334 0.20438857 1.052 24 18 17 0
0.15629715 0.20438857 1.052 23 19 19 0
0.15830095 0.20438857 1.052 23 18 17 0
0.15969525 0.20361145 1.0480001 18 18 16 0
0.16169144 0.20361145 1.0480001 14 20 14 0
0.16321905 0.20302859 1.0450001 19 19 13 0
0.16568382 0.20361145 1.0480001 24 17 15 0
0.16720001 0.20302859 1.0450001 23 15 17 0
0.16919048 0.20302859 1.0450001 23 16 14 0
0.17068954 0.20244572 1.0420001 23 17 11 0
0.1726743 0.20244572 1.0420001 23 17 11 0
0.17465906 0.20244572 1.0420001 23 17 11 0
0.17664382 0.20244572 1.0420001 23 16 12 0
0.17862858 0.20244572 1.0420001 22 14 13 0
0.18061334 0.20244572 1.0420001 21 13 11 0
0.18207239 0.20186286 1.039 25 13 10 0
0.18405144 0.20186286 1.039 29 12 9 0
0.18603048 0.20186286 1.039 24 13 8 0
0.18800953 0.20186286 1.039 20 14 7 0
0.18998857 0.20186286 1.039 20 16 7 0
0.19196762 0.20186286 1.039 21 16 7 0
0.19394667 0.20186286 1.039 20 14 7 0
0.19592571 0.20186286 1.039 19 14 8 0
0.19790477 0.20186286 1.039 20 15 10 0
0.19930667 0.20128001 1.036 21 14 10 0
0.20186286 0.20186286 1.039 21 14 10 0
0.20384191 0.20186286 1.039 21 14 10 0
0.20582095 0.20186286 1.039 22 14 11 0
0.20719999 0.20128001 1.036 23 14 7 0
0.20917334 0.20128001 1.036 22 15 3 0
0.21114667 0.20128001 1.036 21 14 6 0
0.21373715 0.20186286 1.039 21 14 9 0
0.21509334 0.20128001 1.036 21 14 8 0
0.21706666 0.20128001 1.036 20 14 7 0
0.21904001 0.20128001 1.036 20 14 8 0
0.22101332 0.20128001 1.036 19 15 10 0
0.22234094 0.20069714 1.033 18 14 9 0
0.22430857 0.20069714 1.033 18 13 9 0
0.22627619 0.20069714 1.033 19 14 9 0
0.22824381 0.20069714 1.033 19 14 9 0
0.23021142 0.20069714 1.033 19 14 9 0
0.23217905 0.20069714 1.033 19 14 9 0
0.23346668 0.20011431 1.0300001 19 13 7 0
0.2354286 0.20011431 1.0300001 16 13 6 0
0.2373905 0.20011431 1.0300001 14 13 5 0
0.23935241 0.20011431 1.0300001 16 14 5 0
0.24131431 0.20011431 1.0300001 18 13 8 0
0.24327621 0.20011431 1.0300001 18 13 11 0
0.24523813 0.20011431 1.0300001 18 12 10 0
0.24720003 0.20011431 1.0300001 18 12 10 0
0.2498876 0.20069714 1.033 18 13 12 0
0.25258666 0.20128001 1.036 19 14 15 0
0.25382286 0.20069714 1.033 21 14 16 0
0.25653335 0.20128001 1.036 21 14 17 0
0.25850666 0.20128001 1.036 21 15 14 0
0.26123431 0.20186286 1.039 23 16 12 0
0.26321337 0.20186286 1.039 26 14 11 0
0.26519236 0.20186286 1.039 23 14 11 0
0.26717141 0.20186286 1.039 21 14 13 0
0.26992762 0.20244572 1.0420001 21 16 15 0
0.2719124 0.20244572 1.0420001 21 17 15 0
0.27389714 0.20244572 1.0420001 23 18 15 0
0.2774705 0.20361145 1.0480001 26 19 19 0
0.27946669 0.20361145 1.0480001 29 19 23 0
0.28253713 0.20438857 1.052 33 20 31 0
0.28454095 0.20438857 1.052 36 25 39 0
0.28736192 0.20497145 1.0550001 40 32 23 0
0.28937146 0.20497145 1.0550001 20 30 8 0
0.29138097 0.20497145 1.0550001 1 1 62 0
0.29339051 0.20497145 1.0550001 80 1 117 0
0.36816764 0.25373715 1.3060001 206 238 230 0
0.37065524 0.25373715 1.3060001 253 233 228 0
0.37457144 0.25470859 1.3110001 247 228 227 0
0.37706858 0.25470859 1.3110001 242 229 226 0
0.37956575 0.25470859 1.3110001 243 231 225 0
0.38206288 0.25470859 1.3110001 244 231 227 0
0.38456002 0.25470859 1.3110001 245 234 228 0
0.38853335 0.25568002 1.3160001 246 232 229 0
0.39104003 0.25568002 1.3160001 245 230 230 0
0.3935467 0.25568002 1.3160001 244 234 230 0
0.39454859 0.25470859 1.3110001 244 236 230 0
0.39704576 0.25470859 1.3110001 245 234 230 0
0.39954287 0.25470859 1.3110001 245 232 231 0
0.40204003 0.25470859 1.3110001 246 233 233 0
0.40453717 0.25470859 1.3110001 244 235 235 0
0.40703434 0.25470859 1.3110001 243 234 234 0
0.41109335 0.25568002 1.3160001 244 232 233 0
0.41360003 0.25568002 1.3160001 245 234 235 0
0.4161067 0.25568002 1.3160001 247 237 237 0
0.41861337 0.25568002 1.3160001 249 237 218 0
0.42112002 0.25568002 1.3160001 251 238 198 0
0.42362669 0.25568002 1.3160001 254 234 160 0
0.43617147 0.26170287 1.3470001 254 230 122 0
0.44036573 0.2626743 1.3520001 254 177 89 0
0.44654477 0.26481143 1.363 184 125 56 0
0.44749334 0.26384002 1.358 114 63 28 0
0.45008001 0.26384002 1.358 57 1 1 0
0.4506667 0.2626743 1.3520001 1 1 1 0
0.45324194 0.2626743 1.3520001 7 1 1 0
0.45581716 0.2626743 1.3520001 14 4 4 0
0.45839241 0.2626743 1.3520001 17 7 8 0
0.46096766 0.2626743 1.3520001 21 13 5 0
0.46182862 0.26170287 1.3470001 19 12 2 0
0.46439433 0.26170287 1.3470001 18 12 8 0
0.46696004 0.26170287 1.3470001 20 12 14 0
0.46952575 0.26170287 1.3470001 23 14 16 0
0.47384384 0.2626743 1.3520001 24 16 18 0
0.47465718 0.26170287 1.3470001 26 18 17 0
0.47899431 0.2626743 1.3520001 32 21 16 0
0.47800761 0.26073143 1.342 38 21 22 0
0.48235431 0.26170287 1.3470001 44 30 27 0
0.48492002 0.26170287 1.3470001 50 27 15 0
-0.59094095 0.25151619 1.2820001 231 207 197 0
-0.58849907 0.25151619 1.2820001 231 202 202 0
-0.58834285 0.25249714 1.2870001 231 205 207 0
-0.58589149 0.25249714 1.2870001 232 204 203 0
-0.58344001 0.25249714 1.2870001 231 203 199 0
-0.58279431 0.25328192 1.291 231 202 198 0
-0.5803352 0.25328192 1.291 232 204 197 0
-0.57787621 0.25328192 1.291 234 206 196 0
-0.57764572 0.25426286 1.296 232 204 195 0
-0.57517713 0.25426286 1.296 231 205 196 0
-0.57270855 0.25426286 1.296 230 205 197 0
-0.57024002 0.25426286 1.296 230 208 199 0
-0.56777138 0.25426286 1.296 231 208 201 0
-0.56312191 0.25328192 1.291 232 208 202 0
-0.55892569 0.25249714 1.2870001 231 208 203 0
-0.55647433 0.25249714 1.2870001 231 209 201 0
-0.55574477 0.25328192 1.291 232 209 200 0
-0.55157143 0.25249714 1.2870001 233 210 200 0
-0.55082667 0.25328192 1.291 232 207 201 0
-0.54836762 0.25328192 1.291 231 207 203 0
-0.54421717 0.25249714 1.2870001 231 208 205 0
-0.54344952 0.25328192 1.291 232 209 207 0
-0.54099047 0.25328192 1.291 231 209 210 0
-0.53686291 0.25249714 1.2870001 230 207 207 0
-0.53441143 0.25249714 1.2870001 231 206 204 0
-0.53361332 0.25328192 1.291 232 206 198 0
-0.53115427 0.25328192 1.291 235 206 193 0
-0.52869523 0.25328192 1.291 238 206 196 0
-0.52623618 0.25328192 1.291 235 209 200 0
-0.52580571 0.25426286 1.296 232 212 200 0
-0.52333719 0.25426286 1.296 232 211 200 0
-0.52086854 0.25426286 1.296 233 211 203 0
-0.51640004 0.25328192 1.291 233 211 206 0
-0.51394093 0.25328192 1.291 233 211 202 0
-0.51148194 0.25328192 1.291 235 212 199 0
-0.51099432 0.25426286 1.296 237 213 196 0
-0.50852573 0.25426286 1.296 235 212 193 0
-0.50605714 0.25426286 1.296 234 209 199 0
-0.50358856 0.25426286 1.296 234 210 206 0
-0.49918666 0.25328192 1.291 234 212 210 0
-0.49865142 0.25426286 1.296 233 212 214 0
-0.49426857 0.25328192 1.291 232 212 209 0
-0.49180955 0.25328192 1.291 233 212 205 0
-0.49124569 0.25426286 1.296 235 211 197 0
-0.48877713 0.25426286 1.296 234 210 190 0
-0.48630854 0.25426286 1.296 234 209 196 0
-0.48197332 0.25328192 1.291 235 209 202 0
-0.47951427 0.25328192 1.291 236 209 204 0
-0.47705522 0.25328192 1.291 236 212 206 0
-0.48011053 0.25622478 1.3060001 236 211 206 0
-0.47762287 0.25622478 1.3060001 236 211 206 0
-0.47331625 0.25524381 1.3010001 235 211 206 0
-0.46721905 0.25328192 1.291 235 212 206 0
-0.46656001 0.25426286 1.296 235 214 205 0
-0.46409142 0.25426286 1.296 234 213 205 0
-0.46340385 0.25524381 1.3010001 233 213 205 0
-0.45915428 0.25426286 1.296 235 213 205 0
-0.45492381 0.25328192 1.291 237 214 205 0
-0.45246476 0.25328192 1.291 236 214 205 0
-0.45000571 0.25328192 1.291 235 218 207 0
-0.44754666 0.25328192 1.291 236 218 209 0
-0.44508761 0.25328192 1.291 237 218 207 0
-0.44434285 0.25426286 1.296 238 216 206 0
-0.44187427 0.25426286 1.296 239 212 208 0
-0.43940571 0.25426286 1.296 239 215 211 0
-0.43862289 0.25524381 1.3010001 239 219 211 0
-0.43614477 0.25524381 1.3010001 236 213 211 0
-0.43366671 0.25524381 1.3010001 234 212 210 0
-0.43118861 0.25524381 1.3010001 236 214 209 0
-0.42871049 0.25524381 1.3010001 237 217 208 0
-0.42459428 0.25426286 1.296 239 216 207 0
-0.4221257 0.25426286 1.296 241 216 208 0
-0.41965714 0.25426286 1.296 240 216 210 0
-0.41718858 0.25426286 1.296 238 217 212 0
-0.41312 0.25328192 1.291 237 219 214 0
-0.41066095 0.25328192 1.291 237 220 214 0
-0.4082019 0.25328192 1.291 236 219 214 0
-0.40574285 0.25328192 1.291 235 219 214 0
-0.40484571 0.25426286 1.296 237 217 215 0
-0.40082476 0.25328192 1.291 239 230 217 0
-0.39990857 0.25426286 1.296 238 220 219 0
-0.39744002 0.25426286 1.296 237 221 216 0
-0.39649528 0.25524381 1.3010001 237 221 214 0
-0.39401719 0.25524381 1.3010001 237 222 216 0
-0.39153907 0.25524381 1.3010001 238 223 219 0
-0.3875657 0.25426286 1.296 239 226 219 0
-0.38658291 0.25524381 1.3010001 239 222 219 0
-0.38410479 0.25524381 1.3010001 240 222 217 0
-0.3816267 0.25524381 1.3010001 240 222 216 0
-0.3791486 0.25524381 1.3010001 240 221 217 0
-0.37811813 0.25622478 1.3060001 240 224 219 0
-0.37563053 0.25622478 1.3060001 241 224 217 0
-0.3731429 0.25622478 1.3060001 241 224 215 0
-0.3692362 0.25524381 1.3010001 241 227 218 0
-0.36393905 0.25328192 1.291 240 227 221 0
-0.36287999 0.25426286 1.296 239 224 218 0
-0.36041144 0.25426286 1.296 241 225 215 0
-0.35932383 0.25524381 1.3010001 243 227 217 0
-0.35547426 0.25426286 1.296 243 227 219 0
-0.35300571 0.25426286 1.296 243 227 219 0
-0.35053712 0.25426286 1.296 243 227 220 0
-0.34941146 0.25524381 1.3010001 244 227 221 0
-0.34693336 0.25524381 1.3010001 243 227 223 0
-0.34445527 0.25524381 1.3010001 243 228 221 0
-0.34066287 0.25426286 1.296 243 228 220 0
-0.33819428 0.25426286 1.296 244 229 222 0
-0.33443049 0.25328192 1.291 244 231 224 0
-0.33197144 0.25328192 1.291 244 231 226 0
-0.32951239 0.25328192 1.291 243 231 228 0
-0.23966476 0.19285524 0.98300004 227 223 167 0
-0.23779239 0.19285524 0.98300004 201 151 92 0
-0.2352 0.19226667 0.98000002 197 131 17 0
-0.23261906 0.19167811 0.97700006 194 179 24 0
-0.23075812 0.19167811 0.97700006 160 148 32 0
-0.22889715 0.19167811 0.97700006 127 88 27 0
-0.22633906 0.19108954 0.97400004 111 77 23 0
-0.22448382 0.19108954 0.97400004 96 67 60 0
-0.22262858 0.19108954 0.97400004 102 79 98 0
-0.22032002 0.19069715 0.97200006 108 77 98 0
-0.21846858 0.19069715 0.97200006 113 72 98 0
-0.21661715 0.19069715 0.97200006 119 67 92 0
-0.21476573 0.19069715 0.97200006 126 92 87 0
-0.2129143 0.19069715 0.97200006 133 118 85 0
-0.21106286 0.19069715 0.97200006 111 97 83 0
-0.20921144 0.19069715 0.97200006 90 76 99 0
-0.20736001 0.19069715 0.97200006 127 102 115 0
-0.20487429 0.19010858 0.96900004 164 162 66 0
-0.20365715 0.19069715 0.97200006 172 157 18 0
-0.20180573 0.19069715 0.97200006 180 153 10 0
-0.1999543 0.19069715 0.97200006 181 153 2 0
-0.19810286 0.19069715 0.97200006 182 152 1 0
