ply
format ascii 1.0
comment PCL generated
element vertex 1240
property float x
property float y
property float z
property uchar red
property uchar green
property uchar blue
property uchar alpha
element camera 0
property float view_px
property float view_py
property float view_pz
property float x_axisx
property float x_axisy
property float x_axisz
property float y_axisx
property float y_axisy
property float y_axisz
property float z_axisx
property float z_axisy
property float z_axisz
property float focal
property float scalex
property float scaley
property float centerx
property float centery
property int viewportx
property int viewporty
property float k1
property float k2
end_header
-0.38210285 0.2433943 1.3740001 1 1 1 0
-0.37948573 0.2433943 1.3740001 1 1 1 0
-0.37522286 0.24233143 1.368 1 1 1 0
-0.37125525 0.24144572 1.363 1 1 1 0
-0.37001145 0.24233143 1.368 1 1 1 0
-0.36606285 0.24144572 1.363 1 1 1 0
-0.36480001 0.24233143 1.368 1 1 1 0
-0.3621943 0.24233143 1.368 1 1 1 0
-0.35827431 0.24144572 1.363 1 1 1 0
-0.35567811 0.24144572 1.363 1 1 1 0
-0.35437715 0.24233143 1.368 1 1 1 0
-0.35177144 0.24233143 1.368 1 1 1 0
-0.34916574 0.24233143 1.368 1 1 1 0
-0.34656 0.24233143 1.368 1 1 1 0
-0.34395429 0.24233143 1.368 1 1 1 0
-0.34134859 0.24233143 1.368 1 1 1 0
-0.34022859 0.2433943 1.3740001 1 1 1 0
-0.33613715 0.24233143 1.368 1 1 1 0
-0.33231238 0.24144572 1.363 1 1 1 0
-0.32971618 0.24144572 1.363 1 1 1 0
-0.32712001 0.24144572 1.363 1 1 1 0
-0.32452381 0.24144572 1.363 1 1 1 0
-0.32192764 0.24144572 1.363 1 1 1 0
-0.31816003 0.24056001 1.358 1 1 1 0
-0.31673527 0.24144572 1.363 1 1 1 0
-0.31413904 0.24144572 1.363 1 1 1 0
-0.31154284 0.24144572 1.363 1 1 1 0
-0.30894667 0.24144572 1.363 2 1 1 0
-0.30635047 0.24144572 1.363 1 1 1 0
-0.3037543 0.24144572 1.363 1 1 1 0
-0.30005333 0.24056001 1.358 1 1 1 0
-0.29746667 0.24056001 1.358 1 1 1 0
-0.29488003 0.24056001 1.358 1 1 1 0
-0.29229334 0.24056001 1.358 1 1 1 0
-0.28970668 0.24056001 1.358 1 1 1 0
-0.28712001 0.24056001 1.358 1 1 1 0
-0.28453335 0.24056001 1.358 1 1 1 0
-0.28298476 0.24144572 1.363 1 1 1 0
-0.28141713 0.24233143 1.368 1 1 1 0
-0.27677333 0.24056001 1.358 1 1 1 0
-0.27418667 0.24056001 1.358 1 1 1 0
-0.27359998 0.24233143 1.368 1 1 1 0
-0.27099428 0.24233143 1.368 1 1 1 0
-0.26838857 0.24233143 1.368 1 1 1 0
-0.26578286 0.24233143 1.368 1 1 1 0
-0.26317713 0.24233143 1.368 1 1 1 0
-0.26171431 0.2433943 1.3740001 1 1 1 0
-0.25796571 0.24233143 1.368 1 1 1 0
-0.25535998 0.24233143 1.368 1 1 1 0
-0.25275427 0.24233143 1.368 1 1 1 0
-0.25014856 0.24233143 1.368 1 1 1 0
-0.2486286 0.2433943 1.3740001 1 1 1 0
-0.24601144 0.2433943 1.3740001 1 1 1 0
-0.2433943 0.2433943 1.3740001 1 1 1 0
-0.24077715 0.2433943 1.3740001 1 1 1 0
-0.23816 0.2433943 1.3740001 1 1 1 0
-0.23451428 0.24233143 1.368 1 1 1 0
-0.23106097 0.24144572 1.363 1 1 1 0
-0.22846477 0.24144572 1.363 1 1 1 0
-0.22586857 0.24144572 1.363 1 1 1 0
-0.22327238 0.24144572 1.363 1 1 1 0
-0.2206762 0.24144572 1.363 1 1 1 0
-0.21808 0.24144572 1.363 1 1 1 0
-0.21548381 0.24144572 1.363 1 1 1 0
-0.21288763 0.24144572 1.363 1 1 1 0
-0.21106285 0.24233143 1.368 1 1 1 0
-0.20845714 0.24233143 1.368 1 1 1 0
-0.20585144 0.24233143 1.368 1 1 1 0
-0.20250286 0.24144572 1.363 1 1 1 0
-0.19990668 0.24144572 1.363 1 1 1 0
-0.19731048 0.24144572 1.363 1 1 1 0
-0.19400001 0.24056001 1.358 1 1 1 0
-0.19141334 0.24056001 1.358 1 1 1 0
-0.18882667 0.24056001 1.358 1 1 1 0
-0.18624 0.24056001 1.358 1 1 1 0
-0.18365332 0.24056001 1.358 1 1 1 0
-0.18106668 0.24056001 1.358 1 1 1 0
-0.17848 0.24056001 1.358 1 1 1 0
-0.17589334 0.24056001 1.358 1 1 1 0
-0.17394476 0.24144572 1.363 1 1 1 0
-0.17134857 0.24144572 1.363 1 1 1 0
-0.16875239 0.24144572 1.363 1 1 1 0
-0.16615619 0.24144572 1.363 1 1 1 0
-0.16356 0.24144572 1.363 1 1 1 0
-0.16155429 0.24233143 1.368 1 1 1 0
-0.15174478 0.23134859 1.3060001 1 1 1 0
-0.14925715 0.23134859 1.3060001 1 1 1 0
-0.14620763 0.23046288 1.3010001 1 1 1 0
-0.14372954 0.23046288 1.3010001 1 1 1 0
-0.14070857 0.22957714 1.296 1 1 1 0
-0.13770667 0.22869143 1.291 1 1 1 0
-0.13524762 0.22869143 1.291 1 1 1 0
-0.13237715 0.22798286 1.2870001 1 1 1 0
-0.12942097 0.22709715 1.2820001 1 1 1 0
-0.12747429 0.22798286 1.2870001 1 1 1 0
-0.12453715 0.22709715 1.2820001 1 1 1 0
-0.12209525 0.22709715 1.2820001 1 1 1 0
-0.11965334 0.22709715 1.2820001 1 1 1 0
-0.11675429 0.22621144 1.2770001 1 1 1 0
-0.11432191 0.22621144 1.2770001 1 1 1 0
-0.11232763 0.22709715 1.2820001 1 1 1 0
-0.10988571 0.22709715 1.2820001 1 1 1 0
-0.10702477 0.22621144 1.2770001 1 1 1 0
-0.10459238 0.22621144 1.2770001 1 1 1 0
-0.10216001 0.22621144 1.2770001 1 1 1 0
-0.099727623 0.22621144 1.2770001 1 1 1 0
-0.097676195 0.22709715 1.2820001 1 1 1 0
-0.09523429 0.22709715 1.2820001 1 1 1 0
-0.092792384 0.22709715 1.2820001 1 1 1 0
-0.090702862 0.22798286 1.2870001 1 1 1 0
-0.088251427 0.22798286 1.2870001 1 1 1 0
-0.0858 0.22798286 1.2870001 1 1 1 0
-0.083607621 0.22869143 1.291 1 1 1 0
-0.081148572 0.22869143 1.291 1 1 1 0
-0.078689523 0.22869143 1.291 1 1 1 0
-0.076230474 0.22869143 1.291 1 1 1 0
-0.073771425 0.22869143 1.291 1 1 1 0
-0.071312375 0.22869143 1.291 1 1 1 0
-0.068853334 0.22869143 1.291 1 1 1 0
-0.070354283 0.24233143 1.368 1 1 1 0
-0.067748569 0.24233143 1.368 1 1 1 0
-0.064904764 0.24144572 1.363 1 1 1 0
-0.062308576 0.24144572 1.363 1 1 1 0
-0.059712384 0.24144572 1.363 1 1 1 0
-0.057116192 0.24144572 1.363 1 1 1 0
-0.054719999 0.24233143 1.368 1 1 1 0
-0.052114286 0.24233143 1.368 1 1 1 0
-0.049508572 0.24233143 1.368 1 1 1 0
-0.047108576 0.2433943 1.3740001 1 1 1 0
-0.044491433 0.2433943 1.3740001 1 1 1 0
-0.041874286 0.2433943 1.3740001 1 1 1 0
-0.039085716 0.24233143 1.368 1 1 1 0
-0.03664 0.2433943 1.3740001 1 1 1 0
-0.03402286 0.2433943 1.3740001 1 1 1 0
-0.031268571 0.24233143 1.368 1 1 1 0
-0.028788572 0.2433943 1.3740001 1 1 1 0
-0.026057143 0.24233143 1.368 1 1 1 0
-0.023451429 0.24233143 1.368 1 1 1 0
-0.020937143 0.2433943 1.3740001 1 1 1 0
-0.01832 0.2433943 1.3740001 1 1 1 0
-0.015702859 0.2433943 1.3740001 1 1 1 0
-0.013085715 0.2433943 1.3740001 1 1 1 0
-0.010468571 0.2433943 1.3740001 1 1 1 0
-0.0078514293 0.2433943 1.3740001 1 1 1 0
-0.0052342857 0.2433943 1.3740001 1 1 1 0
-0.0026171429 0.2433943 1.3740001 1 1 1 0
0 0.2433943 1.3740001 1 1 1 0
0.0026171429 0.2433943 1.3740001 1 1 1 0
0.0052342857 0.2433943 1.3740001 1 1 1 0
0.0078514293 0.2433943 1.3740001 1 1 1 0
0.010468571 0.2433943 1.3740001 1 1 1 0
0.013085715 0.2433943 1.3740001 1 1 1 0
0.015702859 0.2433943 1.3740001 1 1 1 0
0.01832 0.2433943 1.3740001 1 1 1 0
0.020937143 0.2433943 1.3740001 1 1 1 0
0.023554288 0.2433943 1.3740001 1 1 1 0
0.026171429 0.2433943 1.3740001 1 1 1 0
0.028788572 0.2433943 1.3740001 1 1 1 0
0.031268571 0.24233143 1.368 1 1 1 0
0.033874284 0.24233143 1.368 1 1 1 0
0.036480002 0.24233143 1.368 1 1 1 0
0.039085716 0.24233143 1.368 1 1 1 0
0.04169143 0.24233143 1.368 1 1 1 0
0.044297144 0.24233143 1.368 1 1 1 0
0.046902858 0.24233143 1.368 1 1 1 0
0.049725715 0.2433943 1.3740001 1 1 1 0
0.052342858 0.2433943 1.3740001 1 1 1 0
0.054960005 0.2433943 1.3740001 1 1 1 0
0.057577144 0.2433943 1.3740001 1 1 1 0
0.060194287 0.2433943 1.3740001 1 1 1 0
0.062811434 0.2433943 1.3740001 1 1 1 0
0.065142855 0.24233143 1.368 1 1 1 0
0.067748569 0.24233143 1.368 1 1 1 0
0.070354283 0.24233143 1.368 1 1 1 0
0.072960004 0.24233143 1.368 1 1 1 0
0.075565718 0.24233143 1.368 1 1 1 0
0.078171432 0.24233143 1.368 1 1 1 0
0.080777146 0.24233143 1.368 1 1 1 0
0.08338286 0.24233143 1.368 1 1 1 0
0.085988574 0.24233143 1.368 1 1 1 0
0.088594288 0.24233143 1.368 1 1 1 0
0.091200002 0.24233143 1.368 1 1 1 0
0.093805715 0.24233143 1.368 1 1 1 0
0.096411429 0.24233143 1.368 1 1 1 0
0.099017143 0.24233143 1.368 1 1 1 0
0.10162286 0.24233143 1.368 1 2 1 0
0.10422857 0.24233143 1.368 1 1 1 0
0.10730286 0.2433943 1.3740001 1 1 1 0
0.10944 0.24233143 1.368 1 1 1 0
0.11204571 0.24233143 1.368 1 1 1 0
0.11465143 0.24233143 1.368 1 1 1 0
0.11777143 0.2433943 1.3740001 1 1 1 0
0.11986286 0.24233143 1.368 1 1 1 0
0.12246858 0.24233143 1.368 1 1 1 0
0.12507428 0.24233143 1.368 1 1 1 0
0.12767999 0.24233143 1.368 1 1 1 0
0.13028571 0.24233143 1.368 1 1 1 0
0.13289143 0.24233143 1.368 1 1 1 0
0.13549714 0.24233143 1.368 1 1 1 0
0.13810284 0.24233143 1.368 1 1 1 0
0.14070857 0.24233143 1.368 1 1 1 0
0.1433143 0.24233143 1.368 1 1 1 0
0.14592001 0.24233143 1.368 1 1 1 0
0.14852571 0.24233143 1.368 1 1 1 0
0.15113144 0.24233143 1.368 1 1 1 0
0.15373716 0.24233143 1.368 1 1 1 0
0.15634286 0.24233143 1.368 1 1 1 0
0.15894857 0.24233143 1.368 1 1 1 0
0.16155429 0.24233143 1.368 1 1 1 0
0.16488001 0.2433943 1.3740001 1 1 1 0
0.16749714 0.2433943 1.3740001 1 1 1 0
0.17011429 0.2433943 1.3740001 1 1 1 0
0.17273144 0.2433943 1.3740001 1 1 1 0
0.17534858 0.2433943 1.3740001 1 1 1 0
0.17796573 0.2433943 1.3740001 1 1 1 0
0.18058287 0.2433943 1.3740001 1 1 1 0
0.1824 0.24233143 1.368 1 1 1 0
0.18500572 0.24233143 1.368 1 1 1 0
0.1884343 0.2433943 1.3740001 1 1 1 0
0.19105142 0.2433943 1.3740001 1 1 1 0
0.19366857 0.2433943 1.3740001 1 1 1 0
0.19628572 0.2433943 1.3740001 1 1 1 0
0.19890286 0.2433943 1.3740001 1 1 1 0
0.20152001 0.2433943 1.3740001 1 1 1 0
0.20413715 0.2433943 1.3740001 1 1 1 0
0.2067543 0.2433943 1.3740001 1 1 1 0
0.20937143 0.2433943 1.3740001 1 1 1 0
0.21106285 0.24233143 1.368 1 1 1 0
0.21366857 0.24233143 1.368 1 1 1 0
0.21722287 0.2433943 1.3740001 1 1 1 0
0.21888 0.24233143 1.368 1 1 1 0
0.22245716 0.2433943 1.3740001 1 1 1 0
0.22507431 0.2433943 1.3740001 1 1 1 0
0.22669715 0.24233143 1.368 1 1 1 0
0.22930285 0.24233143 1.368 1 1 1 0
0.23292571 0.2433943 1.3740001 1 1 1 0
0.23554286 0.2433943 1.3740001 1 1 1 0
0.23712002 0.24233143 1.368 1 1 1 0
0.23972572 0.24233143 1.368 1 1 1 0
0.24233143 0.24233143 1.368 1 1 1 0
0.24493717 0.24233143 1.368 1 1 1 0
0.24663809 0.24144572 1.363 1 1 1 0
0.24832001 0.24056001 1.358 1 1 1 0
0.25090665 0.24056001 1.358 1 1 1 0
0.25349334 0.24056001 1.358 1 1 1 0
0.25702286 0.24144572 1.363 1 1 1 0
0.25961906 0.24144572 1.363 1 1 1 0
0.26221526 0.24144572 1.363 1 1 1 0
0.26578286 0.24233143 1.368 1 1 1 0
0.26838857 0.24233143 1.368 1 1 1 0
0.27218288 0.2433943 1.3740001 1 1 1 0
0.27359998 0.24233143 1.368 1 1 1 0
0.27741715 0.2433943 1.3740001 1 1 1 0
0.27881142 0.24233143 1.368 1 1 1 0
0.28141713 0.24233143 1.368 1 1 1 0
0.28298476 0.24144572 1.363 1 1 1 0
0.28558096 0.24144572 1.363 1 1 1 0
0.28817713 0.24144572 1.363 1 1 1 0
0.29077333 0.24144572 1.363 1 1 1 0
0.2933695 0.24144572 1.363 1 1 1 0
0.29596573 0.24144572 1.363 1 1 1 0
0.29856193 0.24144572 1.363 1 1 1 0
0.30226287 0.24233143 1.368 1 1 1 0
0.30486858 0.24233143 1.368 1 1 1 0
0.30747432 0.24233143 1.368 1 1 1 0
0.31008002 0.24233143 1.368 1 1 1 0
0.31268573 0.24233143 1.368 1 1 1 0
0.31667432 0.2433943 1.3740001 1 1 1 0
0.31789714 0.24233143 1.368 1 1 1 0
0.32050288 0.24233143 1.368 1 1 1 0
0.32310858 0.24233143 1.368 1 1 1 0
0.32452381 0.24144572 1.363 1 1 1 0
0.32712001 0.24144572 1.363 1 1 1 0
0.32850668 0.24056001 1.358 1 1 1 0
0.33109334 0.24056001 1.358 1 1 1 0
0.33490857 0.24144572 1.363 1 1 1 0
0.33750477 0.24144572 1.363 1 1 1 0
0.34010097 0.24144572 1.363 1 1 1 0
0.34269714 0.24144572 1.363 1 1 1 0
0.34529334 0.24144572 1.363 1 1 1 0
0.34788951 0.24144572 1.363 1 1 1 0
0.35048571 0.24144572 1.363 1 1 1 0
0.35308191 0.24144572 1.363 1 1 1 0
0.35698286 0.24233143 1.368 1 1 1 0
0.35958856 0.24233143 1.368 1 1 1 0
0.3621943 0.24233143 1.368 1 1 1 0
0.36480001 0.24233143 1.368 1 1 1 0
0.36606285 0.24144572 1.363 1 1 1 0
0.36865905 0.24144572 1.363 1 1 1 0
0.37125525 0.24144572 1.363 1 1 1 0
0.37385142 0.24144572 1.363 1 1 1 0
0.37644765 0.24144572 1.363 1 1 1 0
0.37904382 0.24144572 1.363 1 1 1 0
0.38164002 0.24144572 1.363 1 1 1 0
0.38423619 0.24144572 1.363 1 1 1 0
0.38541335 0.24056001 1.358 1 1 1 0
0.38800001 0.24056001 1.358 1 1 1 0
0.39058667 0.24056001 1.358 1 1 1 0
0.39317334 0.24056001 1.358 1 1 1 0
0.39576 0.24056001 1.358 1 1 1 0
0.39834666 0.24056001 1.358 1 1 1 0
0.40240952 0.24144572 1.363 1 1 1 0
0.40500572 0.24144572 1.363 1 1 1 0
0.40760192 0.24144572 1.363 1 1 1 0
0.41019809 0.24144572 1.363 1 1 1 0
0.41279429 0.24144572 1.363 1 1 1 0
0.41539046 0.24144572 1.363 1 1 1 0
0.41798669 0.24144572 1.363 1 1 1 0
0.41903999 0.24056001 1.358 1 1 1 0
0.42162666 0.24056001 1.358 1 1 1 0
0.42233905 0.23949715 1.3520001 1 1 1 0
0.4249143 0.23949715 1.3520001 1 1 1 0
0.42748955 0.23949715 1.3520001 1 1 1 0
0.4300648 0.23949715 1.3520001 1 1 1 0
0.43264002 0.23949715 1.3520001 1 1 1 0
0.43521526 0.23949715 1.3520001 1 1 1 0
0.43779051 0.23949715 1.3520001 1 1 1 0
-0.61837715 0.23920763 1.3360001 3 1 2 0
-0.61583239 0.23920763 1.3360001 2 1 4 0
-0.61328763 0.23920763 1.3360001 1 1 2 0
-0.61074287 0.23920763 1.3360001 1 1 1 0
-0.61320579 0.24117716 1.3470001 1 1 1 0
-0.61290669 0.2420724 1.3520001 1 1 1 0
-0.61033148 0.2420724 1.3520001 1 1 1 0
-0.61045337 0.24314666 1.358 1 1 1 0
-0.60786664 0.24314666 1.358 1 1 2 0
-0.60527998 0.24314666 1.358 2 1 4 0
-0.60269332 0.24314666 1.358 3 1 3 0
-0.59745526 0.2420724 1.3520001 2 1 2 0
-0.59488004 0.2420724 1.3520001 1 1 1 0
-0.59230483 0.2420724 1.3520001 1 1 1 0
-0.59234667 0.24314666 1.358 1 1 1 0
-0.58715433 0.2420724 1.3520001 2 1 1 0
-0.58457911 0.2420724 1.3520001 3 1 1 0
-0.58200389 0.2420724 1.3520001 2 1 1 0
-0.57942861 0.2420724 1.3520001 1 1 1 0
-0.57941335 0.24314666 1.358 1 1 1 0
-0.57895046 0.24404192 1.363 1 1 1 0
-0.57635427 0.24404192 1.363 1 1 1 0
-0.57586288 0.24493717 1.368 1 1 1 0
-0.5690667 0.24314666 1.358 1 1 1 0
-0.56647998 0.24314666 1.358 1 1 1 0
-0.56389332 0.24314666 1.358 1 1 1 0
-0.56130666 0.24314666 1.358 1 1 1 0
-0.55625147 0.2420724 1.3520001 2 1 1 0
-0.55367625 0.2420724 1.3520001 3 1 1 0
-0.55110103 0.2420724 1.3520001 2 1 1 0
-0.54852575 0.2420724 1.3520001 1 1 1 0
-0.54595053 0.2420724 1.3520001 1 1 2 0
-0.54337531 0.2420724 1.3520001 1 1 1 0
-0.54080003 0.2420724 1.3520001 2 1 1 0
-0.53822482 0.2420724 1.3520001 3 1 1 0
-0.5356496 0.2420724 1.3520001 2 1 1 0
-0.53307432 0.2420724 1.3520001 2 1 1 0
-0.5304991 0.2420724 1.3520001 5 1 1 0
-0.52792388 0.2420724 1.3520001 9 1 1 0
-0.5253486 0.2420724 1.3520001 5 1 1 0
-0.52277339 0.2420724 1.3520001 1 1 1 0
-0.52019817 0.2420724 1.3520001 1 1 1 0
-0.51762289 0.2420724 1.3520001 1 1 2 0
-0.51314288 0.24117716 1.3470001 1 1 3 0
-0.51247245 0.2420724 1.3520001 1 1 2 0
-0.50989717 0.2420724 1.3520001 1 1 1 0
-0.50544572 0.24117716 1.3470001 1 1 1 0
-0.50288004 0.24117716 1.3470001 1 1 1 0
-0.50031435 0.24117716 1.3470001 1 1 1 0
-0.49959624 0.2420724 1.3520001 1 1 1 0
-0.49922666 0.24314666 1.358 1 1 1 0
-0.49664003 0.24314666 1.358 1 1 1 0
-0.49405336 0.24314666 1.358 1 1 1 0
-0.4914667 0.24314666 1.358 1 1 1 0
-0.49067998 0.24404192 1.363 1 1 1 0
-0.48808384 0.24404192 1.363 1 1 1 0
-0.48548764 0.24404192 1.363 1 1 1 0
-0.48112002 0.24314666 1.358 1 1 1 0
-0.47853336 0.24314666 1.358 1 1 1 0
-0.47594666 0.24314666 1.358 1 1 1 0
-0.47510284 0.24404192 1.363 1 1 1 0
-0.47250667 0.24404192 1.363 1 1 1 0
-0.47370288 0.24601144 1.3740001 1 1 1 0
-0.47108573 0.24601144 1.3740001 1 1 1 0
-0.47017336 0.24690668 1.3790001 1 1 1 0
-0.46754667 0.24690668 1.3790001 1 1 1 0
-0.38232002 0.20304002 1.1340001 1 1 4 0
-0.37781337 0.20178668 1.1270001 1 1 6 0
-0.37566671 0.20178668 1.1270001 2 1 4 0
-0.37352005 0.20178668 1.1270001 1 1 1 0
-0.37005526 0.20107049 1.123 1 1 1 0
-0.3679162 0.20107049 1.123 1 1 1 0
-0.36480001 0.20053333 1.12 1 1 1 0
-0.36266664 0.20053333 1.12 1 1 1 0
-0.36053333 0.20053333 1.12 1 1 1 0
-0.35712001 0.19981715 1.1160001 1 1 1 0
-0.35626665 0.20053333 1.12 2 1 1 0
-0.35413334 0.20053333 1.12 2 1 1 0
-0.352 0.20053333 1.12 3 1 1 0
-0.34986669 0.20053333 1.12 2 1 1 0
-0.34773332 0.20053333 1.12 1 1 1 0
-0.34652573 0.20107049 1.123 1 1 1 0
-0.34438667 0.20107049 1.123 1 1 1 0
-0.34224764 0.20107049 1.123 1 1 2 0
-0.34010857 0.20107049 1.123 1 1 1 0
-0.33796954 0.20107049 1.123 2 4 1 0
-0.33583048 0.20107049 1.123 3 2 1 0
-0.33488002 0.20178668 1.1270001 2 1 1 0
-0.33391431 0.20250286 1.131 1 1 1 0
-0.33176002 0.20250286 1.131 2 1 1 0
-0.33048001 0.20304002 1.1340001 3 1 1 0
-0.32832003 0.20304002 1.1340001 2 1 1 0
-0.32616001 0.20304002 1.1340001 1 1 1 0
-0.324 0.20304002 1.1340001 1 1 1 0
-0.32183999 0.20304002 1.1340001 1 1 1 0
-0.31968004 0.20304002 1.1340001 1 1 1 0
-0.38043427 0.24493717 1.368 1 1 1 0
-0.37782857 0.24493717 1.368 1 1 1 0
-0.37385142 0.24404192 1.363 1 1 1 0
-0.36989334 0.24314666 1.358 1 1 1 0
-0.36730665 0.24314666 1.358 1 1 1 0
-0.36472002 0.24314666 1.358 1 1 1 0
-0.36053336 0.2420724 1.3520001 1 1 1 0
-0.35795811 0.2420724 1.3520001 1 1 1 0
-0.35538289 0.2420724 1.3520001 1 1 1 0
-0.35280764 0.2420724 1.3520001 1 1 1 0
-0.35023239 0.2420724 1.3520001 1 1 1 0
-0.35048571 0.24404192 1.363 1 1 1 0
-0.34788951 0.24404192 1.363 1 1 1 0
-0.34529334 0.24404192 1.363 1 1 1 0
-0.34269714 0.24404192 1.363 1 1 2 0
-0.34010097 0.24404192 1.363 1 1 1 0
-0.33874285 0.24493717 1.368 1 1 1 0
-0.33490857 0.24404192 1.363 1 1 1 0
-0.33109334 0.24314666 1.358 1 1 1 0
-0.32850668 0.24314666 1.358 1 1 1 0
-0.32591999 0.24314666 1.358 1 1 1 0
-0.32333332 0.24314666 1.358 1 1 1 0
-0.32074666 0.24314666 1.358 1 1 1 0
-0.31675431 0.2420724 1.3520001 1 1 1 0
-0.31557333 0.24314666 1.358 1 1 1 0
-0.31298667 0.24314666 1.358 1 1 1 0
-0.31040001 0.24314666 1.358 2 1 2 0
-0.30781335 0.24314666 1.358 4 1 1 0
-0.30522668 0.24314666 1.358 2 1 1 0
-0.30263999 0.24314666 1.358 1 1 1 0
-0.29872763 0.2420724 1.3520001 1 1 1 0
-0.29615241 0.2420724 1.3520001 1 1 1 0
-0.29357716 0.2420724 1.3520001 1 1 1 0
-0.29100195 0.2420724 1.3520001 1 1 1 0
-0.2884267 0.2420724 1.3520001 1 1 1 0
-0.28585145 0.2420724 1.3520001 1 1 1 0
-0.28327623 0.2420724 1.3520001 1 1 1 0
-0.28070098 0.2420724 1.3520001 2 1 1 0
-0.27812573 0.2420724 1.3520001 1 1 1 0
-0.27555051 0.2420724 1.3520001 1 1 1 0
-0.27297527 0.2420724 1.3520001 1 1 1 0
-0.27040002 0.2420724 1.3520001 1 1 1 0
-0.2678248 0.2420724 1.3520001 1 1 1 0
-0.26524955 0.2420724 1.3520001 1 1 1 0
-0.2626743 0.2420724 1.3520001 1 1 1 0
-0.26009908 0.2420724 1.3520001 1 1 1 0
-0.25752383 0.2420724 1.3520001 1 1 1 0
-0.25494859 0.2420724 1.3520001 1 1 1 0
-0.25237337 0.2420724 1.3520001 1 1 1 0
-0.24979812 0.2420724 1.3520001 1 1 1 0
-0.24722287 0.2420724 1.3520001 1 1 1 0
-0.24464765 0.2420724 1.3520001 1 1 1 0
-0.24404192 0.24404192 1.363 1 1 1 0
-0.24144572 0.24404192 1.363 1 1 1 0
-0.23884954 0.24404192 1.363 1 1 1 0
-0.23625334 0.24404192 1.363 1 1 1 0
-0.23365715 0.24404192 1.363 1 1 1 0
-0.23021334 0.24314666 1.358 1 1 1 0
-0.22762668 0.24314666 1.358 1 1 1 0
-0.22504 0.24314666 1.358 1 1 1 0
-0.22245334 0.24314666 1.358 1 1 1 0
-0.21986666 0.24314666 1.358 1 1 1 0
-0.21632001 0.2420724 1.3520001 1 1 1 0
-0.21374477 0.2420724 1.3520001 1 1 1 0
-0.21210667 0.24314666 1.358 1 1 1 0
-0.20952 0.24314666 1.358 2 1 1 0
-0.20769523 0.24404192 1.363 1 1 1 0
-0.20509905 0.24404192 1.363 1 1 1 0
-0.20086859 0.2420724 1.3520001 1 1 1 0
-0.19917333 0.24314666 1.358 1 1 1 0
-0.19658667 0.24314666 1.358 1 1 1 0
-0.19400001 0.24314666 1.358 1 1 1 0
-0.19141334 0.24314666 1.358 1 1 1 0
-0.18882667 0.24314666 1.358 1 1 1 0
-0.18624 0.24314666 1.358 1 1 1 0
-0.18365332 0.24314666 1.358 1 1 1 0
-0.18106668 0.24314666 1.358 1 1 1 0
-0.17848 0.24314666 1.358 1 1 1 0
-0.17589334 0.24314666 1.358 1 1 1 0
-0.17330666 0.24314666 1.358 1 1 1 0
-0.17134857 0.24404192 1.363 1 1 1 0
-0.16875239 0.24404192 1.363 1 1 1 0
-0.16615619 0.24404192 1.363 1 1 1 0
-0.16295999 0.24314666 1.358 1 1 1 0
-0.16037333 0.24314666 1.358 1 1 1 0
-0.15708953 0.2420724 1.3520001 1 1 1 0
-0.14925715 0.2338362 1.3060001 1 1 1 0
-0.14676954 0.2338362 1.3060001 1 1 1 0
-0.14372954 0.23294097 1.3010001 1 1 1 0
-0.14070857 0.23204571 1.296 1 1 1 0
-0.13770667 0.23115048 1.291 1 1 1 0
-0.13524762 0.23115048 1.291 1 1 1 0
-0.13237715 0.2304343 1.2870001 1 1 1 0
-0.12992573 0.2304343 1.2870001 1 1 1 0
-0.12747429 0.2304343 1.2870001 1 1 1 0
-0.12502286 0.2304343 1.2870001 1 1 1 0
-0.12257144 0.2304343 1.2870001 1 1 1 0
-0.11965334 0.22953905 1.2820001 1 1 1 0
-0.11721143 0.22953905 1.2820001 1 1 1 0
-0.11521715 0.2304343 1.2870001 1 1 1 0
-0.11232763 0.22953905 1.2820001 1 1 1 0
-0.10988571 0.22953905 1.2820001 1 1 1 0
-0.10744382 0.22953905 1.2820001 1 1 1 0
-0.10459238 0.22864382 1.2770001 1 1 1 0
-0.10256 0.22953905 1.2820001 1 1 1 0
-0.1001181 0.22953905 1.2820001 1 1 1 0
-0.097676195 0.22953905 1.2820001 1 1 1 0
-0.09523429 0.22953905 1.2820001 1 1 1 0
-0.092792384 0.22953905 1.2820001 1 1 1 0
-0.090350479 0.22953905 1.2820001 1 1 1 0
-0.088251427 0.2304343 1.2870001 1 1 1 0
-0.086066671 0.23115048 1.291 1 1 1 0
-0.083607621 0.23115048 1.291 1 1 1 0
-0.081148572 0.23115048 1.291 1 1 1 0
-0.078689523 0.23115048 1.291 1 1 1 0
-0.076525711 0.23204571 1.296 1 1 1 0
-0.074057147 0.23204571 1.296 1 1 1 0
-0.071588568 0.23204571 1.296 1 1 1 0
-0.069120005 0.23204571 1.296 1 1 1 0
-0.069839999 0.24314666 1.358 1 1 1 0
-0.067253336 0.24314666 1.358 1 1 1 0
-0.064666666 0.24314666 1.358 1 1 1 0
-0.062080003 0.24314666 1.358 1 1 1 0
-0.059493333 0.24314666 1.358 1 1 1 0
-0.05690667 0.24314666 1.358 1 1 1 0
-0.054320004 0.24314666 1.358 1 1 1 0
-0.051733334 0.24314666 1.358 1 1 1 0
-0.049327619 0.24404192 1.363 1 1 1 0
-0.046902858 0.24493717 1.368 1 1 1 0
-0.044135239 0.24404192 1.363 1 1 1 0
-0.04169143 0.24493717 1.368 1 1 1 0
-0.038942855 0.24404192 1.363 1 1 1 0
-0.036480002 0.24493717 1.368 1 1 1 0
-0.033750474 0.24404192 1.363 1 1 1 0
-0.031154288 0.24404192 1.363 1 1 1 0
-0.028558096 0.24404192 1.363 1 1 1 0
-0.025866667 0.24314666 1.358 1 1 1 0
-0.023177145 0.2420724 1.3520001 1 1 1 0
-0.020769523 0.24404192 1.363 1 1 1 0
-0.018173333 0.24404192 1.363 1 1 1 0
-0.015577144 0.24404192 1.363 1 1 1 0
-0.013028571 0.24493717 1.368 1 1 1 0
-0.010384762 0.24404192 1.363 1 1 1 0
-0.007788572 0.24404192 1.363 1 1 1 0
-0.0051923809 0.24404192 1.363 1 1 1 0
-0.0025961904 0.24404192 1.363 1 1 1 0
0 0.24404192 1.363 1 1 1 0
0.0025961904 0.24404192 1.363 1 1 1 0
0.0052114287 0.24493717 1.368 1 1 1 0
0.0078171426 0.24493717 1.368 1 1 1 0
0.010422857 0.24493717 1.368 1 1 1 0
0.013028571 0.24493717 1.368 1 1 1 0
0.015634285 0.24493717 1.368 1 1 1 0
0.018240001 0.24493717 1.368 1 1 1 0
0.020845715 0.24493717 1.368 1 2 1 0
0.023451429 0.24493717 1.368 1 1 1 0
0.026057143 0.24493717 1.368 1 1 1 0
0.028662857 0.24493717 1.368 1 1 1 0
0.031154288 0.24404192 1.363 1 1 1 0
0.033750474 0.24404192 1.363 1 1 1 0
0.036346667 0.24404192 1.363 1 1 1 0
0.038942855 0.24404192 1.363 1 1 1 0
0.041539047 0.24404192 1.363 1 1 1 0
0.044135239 0.24404192 1.363 1 1 1 0
0.046731427 0.24404192 1.363 1 1 1 0
0.049508572 0.24493717 1.368 1 1 1 0
0.052114286 0.24493717 1.368 1 1 1 0
0.054719999 0.24493717 1.368 1 1 1 0
0.057325713 0.24493717 1.368 1 1 1 0
0.059931431 0.24493717 1.368 1 1 1 0
0.062537141 0.24493717 1.368 1 1 1 0
0.064904764 0.24404192 1.363 1 1 1 0
0.067500949 0.24404192 1.363 1 1 1 0
0.070097148 0.24404192 1.363 1 1 1 0
0.072693333 0.24404192 1.363 1 1 1 0
0.075289525 0.24404192 1.363 1 1 1 0
0.07788571 0.24404192 1.363 1 1 1 0
0.080481909 0.24404192 1.363 1 1 1 0
0.083078094 0.24404192 1.363 1 1 1 0
0.085674286 0.24404192 1.363 1 1 1 0
0.088270478 0.24404192 1.363 1 1 1 0
0.09086667 0.24404192 1.363 1 1 1 0
0.093462855 0.24404192 1.363 1 1 1 0
0.096059047 0.24404192 1.363 1 1 1 0
0.098655239 0.24404192 1.363 1 1 1 0
0.10125143 0.24404192 1.363 1 1 1 0
0.10384762 0.24404192 1.363 1 1 1 0
0.10644381 0.24404192 1.363 1 1 1 0
0.10904 0.24404192 1.363 1 1 1 0
0.11163619 0.24404192 1.363 1 1 1 0
0.11423238 0.24404192 1.363 1 1 1 0
0.11682858 0.24404192 1.363 1 1 1 0
0.11942477 0.24404192 1.363 1 1 1 0
0.12202096 0.24404192 1.363 1 1 1 0
0.12461715 0.24404192 1.363 1 1 1 0
0.12721334 0.24404192 1.363 1 1 1 0
0.12980953 0.24404192 1.363 1 1 1 0
0.13240571 0.24404192 1.363 1 1 1 0
0.1350019 0.24404192 1.363 1 1 1 0
0.1375981 0.24404192 1.363 1 1 1 0
0.1401943 0.24404192 1.363 1 1 1 0
0.14279048 0.24404192 1.363 1 1 1 0
0.14538667 0.24404192 1.363 1 1 1 0
0.14798287 0.24404192 1.363 1 1 1 0
0.15057905 0.24404192 1.363 1 1 1 0
0.15261334 0.24314666 1.358 1 1 1 0
0.1552 0.24314666 1.358 1 1 1 0
0.15778667 0.24314666 1.358 1 1 1 0
0.16037333 0.24314666 1.358 1 1 1 0
0.16356 0.24404192 1.363 1 1 1 0
0.16554667 0.24314666 1.358 1 1 1 0
0.16875239 0.24404192 1.363 1 1 1 0
0.17197715 0.24493717 1.368 1 1 1 0
0.17458287 0.24493717 1.368 1 1 1 0
0.17718858 0.24493717 1.368 1 1 1 0
0.17979428 0.24493717 1.368 2 1 1 0
0.1824 0.24493717 1.368 1 1 1 0
0.18500572 0.24493717 1.368 1 1 1 0
0.18692571 0.24404192 1.363 1 1 1 0
0.18952191 0.24404192 1.363 1 1 1 0
0.19141334 0.24314666 1.358 1 1 1 0
0.19471429 0.24404192 1.363 1 1 1 0
0.19803429 0.24493717 1.368 1 1 1 0
0.20063999 0.24493717 1.368 1 1 1 0
0.20324571 0.24493717 1.368 1 1 1 0
0.20509905 0.24404192 1.363 1 1 1 0
0.20769523 0.24404192 1.363 1 1 1 0
0.21029143 0.24404192 1.363 1 1 1 0
0.21288763 0.24404192 1.363 1 1 1 0
0.21627429 0.24493717 1.368 1 1 1 0
0.21808 0.24404192 1.363 1 1 1 0
0.2206762 0.24404192 1.363 1 1 1 0
0.22327238 0.24404192 1.363 1 1 1 0
0.22586857 0.24404192 1.363 1 1 1 0
0.22846477 0.24404192 1.363 1 1 1 0
0.23106097 0.24404192 1.363 1 1 1 0
0.23365715 0.24404192 1.363 1 1 1 0
0.23625334 0.24404192 1.363 1 1 1 0
0.23797333 0.24314666 1.358 1 1 1 0
0.24056001 0.24314666 1.358 1 1 1 0
0.24314666 0.24314666 1.358 1 1 1 0
0.24573335 0.24314666 1.358 1 1 1 0
0.24832001 0.24314666 1.358 1 1 1 0
0.25090665 0.24314666 1.358 1 1 1 0
0.25349334 0.24314666 1.358 1 1 1 0
0.25608 0.24314666 1.358 1 1 1 0
0.25866666 0.24314666 1.358 1 1 1 0
0.26125333 0.24314666 1.358 1 1 1 0
0.26481143 0.24404192 1.363 1 1 1 0
0.26740763 0.24404192 1.363 1 1 1 0
0.2700038 0.24404192 1.363 1 1 1 0
0.2726 0.24404192 1.363 1 1 1 0
0.27519619 0.24404192 1.363 1 1 1 0
0.27881142 0.24493717 1.368 1 1 1 0
0.28038859 0.24404192 1.363 1 1 1 0
0.28298476 0.24404192 1.363 1 1 1 0
0.28558096 0.24404192 1.363 1 1 1 0
0.28712001 0.24314666 1.358 1 1 1 0
0.28970668 0.24314666 1.358 1 1 1 0
0.29229334 0.24314666 1.358 1 1 1 0
0.29488003 0.24314666 1.358 1 1 1 0
0.29746667 0.24314666 1.358 1 1 1 0
0.3011581 0.24404192 1.363 1 1 1 0
0.3037543 0.24404192 1.363 1 1 1 0
0.30635047 0.24404192 1.363 1 1 1 0
0.30894667 0.24404192 1.363 1 1 1 0
0.31154284 0.24404192 1.363 1 1 1 0
0.31413904 0.24404192 1.363 1 1 1 0
0.31673527 0.24404192 1.363 1 1 1 0
0.31816003 0.24314666 1.358 1 1 1 0
0.32074666 0.24314666 1.358 1 1 1 0
0.32333332 0.24314666 1.358 1 1 1 0
0.32448003 0.2420724 1.3520001 1 1 1 0
0.32705525 0.2420724 1.3520001 1 1 1 0
0.32963049 0.2420724 1.3520001 1 1 1 0
0.33220574 0.2420724 1.3520001 1 1 1 0
0.33478096 0.2420724 1.3520001 1 1 1 0
0.33885336 0.24314666 1.358 1 1 1 0
0.34144002 0.24314666 1.358 1 1 1 0
0.34402665 0.24314666 1.358 1 1 1 0
0.34661332 0.24314666 1.358 1 1 1 0
0.34920001 0.24314666 1.358 1 1 1 0
0.35178667 0.24314666 1.358 1 1 1 0
0.35437334 0.24314666 1.358 1 1 1 0
0.35827431 0.24404192 1.363 1 1 1 0
0.36087048 0.24404192 1.363 1 1 1 0
0.36346668 0.24404192 1.363 1 1 1 0
0.36606285 0.24404192 1.363 1 1 1 0
0.36730665 0.24314666 1.358 1 1 1 0
0.37125525 0.24404192 1.363 1 1 1 0
0.37248001 0.24314666 1.358 1 1 1 0
0.37506667 0.24314666 1.358 1 1 2 0
0.37765333 0.24314666 1.358 1 1 3 0
0.38024002 0.24314666 1.358 1 1 2 0
0.38282669 0.24314666 1.358 1 1 1 0
0.38541335 0.24314666 1.358 1 1 1 0
0.38800001 0.24314666 1.358 1 1 1 0
0.39058667 0.24314666 1.358 1 1 1 0
0.39143622 0.2420724 1.3520001 1 1 1 0
0.39401147 0.2420724 1.3520001 1 1 1 0
0.39658672 0.2420724 1.3520001 1 1 1 0
0.40093333 0.24314666 1.358 1 1 1 0
0.40173718 0.2420724 1.3520001 1 1 1 0
0.40610668 0.24314666 1.358 1 1 1 0
0.40869334 0.24314666 1.358 1 1 1 0
0.41128001 0.24314666 1.358 1 1 1 0
0.41386667 0.24314666 1.358 1 1 1 0
0.41461337 0.2420724 1.3520001 1 1 1 0
0.41718861 0.2420724 1.3520001 1 1 1 0
0.41976383 0.2420724 1.3520001 1 1 1 0
0.42233905 0.2420724 1.3520001 1 1 1 0
0.4249143 0.2420724 1.3520001 1 1 1 0
0.42748955 0.2420724 1.3520001 1 1 1 0
0.4300648 0.2420724 1.3520001 1 1 1 0
0.43264002 0.2420724 1.3520001 1 1 1 0
0.43521526 0.2420724 1.3520001 1 1 1 0
0.43779051 0.2420724 1.3520001 1 1 1 0
-0.62366861 0.24084763 1.3310001 1 1 1 0
-0.62113339 0.24084763 1.3310001 1 1 1 0
-0.62092191 0.24175239 1.3360001 3 1 1 0
-0.61837715 0.24175239 1.3360001 5 1 4 0
-0.61352766 0.24084763 1.3310001 3 1 8 0
-0.61328763 0.24175239 1.3360001 1 1 4 0
-0.61074287 0.24175239 1.3360001 1 1 1 0
-0.61092955 0.24283808 1.342 1 1 1 0
-0.61064005 0.24374288 1.3470001 1 1 1 0
-0.60807431 0.24374288 1.3470001 1 1 1 0
-0.6077562 0.24464765 1.3520001 1 1 1 0
-0.60294294 0.24374288 1.3470001 1 1 4 0
-0.60260576 0.24464765 1.3520001 1 1 7 0
-0.60003048 0.24464765 1.3520001 2 1 5 0
-0.59745526 0.24464765 1.3520001 1 1 3 0
-0.5926801 0.24374288 1.3470001 1 1 2 0
-0.59230483 0.24464765 1.3520001 1 1 1 0
-0.58972961 0.24464765 1.3520001 1 1 1 0
-0.58715433 0.24464765 1.3520001 1 1 1 0
-0.58457911 0.24464765 1.3520001 2 1 1 0
-0.58200389 0.24464765 1.3520001 1 1 1 0
-0.57942861 0.24464765 1.3520001 1 1 1 0
-0.57685339 0.24464765 1.3520001 1 1 2 0
-0.57682669 0.24573335 1.358 1 1 2 0
-0.57424003 0.24573335 1.358 1 1 2 0
-0.56912768 0.24464765 1.3520001 1 1 1 0
-0.5690667 0.24573335 1.358 1 1 1 0
-0.56397718 0.24464765 1.3520001 1 1 1 0
-0.56140196 0.24464765 1.3520001 1 1 1 0
-0.55676001 0.24374288 1.3470001 1 1 1 0
-0.55419433 0.24374288 1.3470001 1 1 1 0
-0.55162865 0.24374288 1.3470001 2 1 1 0
-0.55110103 0.24464765 1.3520001 1 1 1 0
-0.54852575 0.24464765 1.3520001 1 1 2 0
-0.54595053 0.24464765 1.3520001 1 1 3 0
-0.54337531 0.24464765 1.3520001 1 1 2 0
-0.54080003 0.24464765 1.3520001 1 1 1 0
-0.53822482 0.24464765 1.3520001 2 1 1 0
-0.5356496 0.24464765 1.3520001 1 1 1 0
-0.53110296 0.24374288 1.3470001 1 1 1 0
-0.5304991 0.24464765 1.3520001 3 1 1 0
-0.52792388 0.24464765 1.3520001 5 1 1 0
-0.5253486 0.24464765 1.3520001 3 1 1 0
-0.52084005 0.24374288 1.3470001 1 1 1 0
-0.51827431 0.24374288 1.3470001 1 1 1 0
-0.51570857 0.24374288 1.3470001 1 1 1 0
-0.5112381 0.24283808 1.342 1 1 1 0
-0.50868195 0.24283808 1.342 2 1 1 0
-0.50612569 0.24283808 1.342 1 1 1 0
-0.50544572 0.24374288 1.3470001 1 1 1 0
-0.50288004 0.24374288 1.3470001 1 1 1 0
-0.50031435 0.24374288 1.3470001 2 1 1 0
-0.49774861 0.24374288 1.3470001 1 1 1 0
-0.49702102 0.24464765 1.3520001 1 1 1 0
-0.49444574 0.24464765 1.3520001 1 1 1 0
-0.49187052 0.24464765 1.3520001 1 1 1 0
-0.4914667 0.24573335 1.358 1 1 1 0
-0.48888004 0.24573335 1.358 1 1 1 0
-0.48629332 0.24573335 1.358 1 1 1 0
-0.48370668 0.24573335 1.358 1 1 1 0
-0.48112002 0.24573335 1.358 1 1 1 0
-0.47853336 0.24573335 1.358 1 1 1 0
-0.47384384 0.24464765 1.3520001 1 1 1 0
-0.47336 0.24573335 1.358 1 1 1 0
-0.47250667 0.24663809 1.363 1 1 1 0
-0.4716343 0.24754287 1.368 1 1 1 0
-0.46902856 0.24754287 1.368 1 1 1 0
-0.46642286 0.24754287 1.368 1 1 1 0
-0.38583618 0.20592381 1.138 1 1 2 0
-0.38130859 0.20465715 1.131 1 1 7 0
-0.37781337 0.20393334 1.1270001 1 1 12 0
-0.37566671 0.20393334 1.1270001 1 1 7 0
-0.37352005 0.20393334 1.1270001 1 1 2 0
-0.37005526 0.20320953 1.123 1 1 2 0
-0.3679162 0.20320953 1.123 1 1 2 0
-0.36480001 0.20266667 1.12 1 1 1 0
-0.36266664 0.20266667 1.12 1 1 1 0
-0.36053333 0.20266667 1.12 1 1 1 0
-0.35840002 0.20266667 1.12 1 1 1 0
-0.35626665 0.20266667 1.12 1 1 1 0
-0.35413334 0.20266667 1.12 1 1 1 0
-0.352 0.20266667 1.12 2 1 1 0
-0.34986669 0.20266667 1.12 1 1 1 0
-0.34866479 0.20320953 1.123 1 1 1 0
-0.34652573 0.20320953 1.123 1 1 1 0
-0.34438667 0.20320953 1.123 1 1 1 0
-0.34224764 0.20320953 1.123 1 1 2 0
-0.34010857 0.20320953 1.123 1 1 2 0
-0.33796954 0.20320953 1.123 2 4 2 0
-0.33583048 0.20320953 1.123 3 4 1 0
-0.33488002 0.20393334 1.1270001 2 1 1 0
-0.33391431 0.20465715 1.131 1 1 1 0
-0.33264002 0.2052 1.1340001 1 1 1 0
-0.33048001 0.2052 1.1340001 2 1 1 0
-0.32832003 0.2052 1.1340001 1 1 1 0
-0.32616001 0.2052 1.1340001 1 1 1 0
-0.32514286 0.20592381 1.138 1 1 1 0
-0.32183999 0.2052 1.1340001 1 1 1 0
-0.32080761 0.20592381 1.138 1 1 1 0
-0.31863999 0.20592381 1.138 1 1 1 0
-0.37904382 0.24663809 1.363 1 1 1 0
-0.37506667 0.24573335 1.358 1 1 1 0
-0.37083432 0.24464765 1.3520001 1 1 1 0
-0.36825907 0.24464765 1.3520001 1 1 1 0
-0.36568385 0.24464765 1.3520001 1 1 1 0
-0.36176574 0.24374288 1.3470001 1 1 1 0
-0.35920003 0.24374288 1.3470001 1 1 1 0
-0.35663432 0.24374288 1.3470001 1 1 1 0
-0.35406861 0.24374288 1.3470001 1 1 1 0
-0.3515029 0.24374288 1.3470001 1 1 1 0
-0.35023239 0.24464765 1.3520001 1 1 1 0
-0.34765717 0.24464765 1.3520001 1 1 1 0
-0.34661332 0.24573335 1.358 1 1 1 0
-0.34402665 0.24573335 1.358 1 1 2 0
-0.34144002 0.24573335 1.358 1 1 3 0
-0.33885336 0.24573335 1.358 1 1 2 0
-0.33750477 0.24663809 1.363 1 1 1 0
-0.33368 0.24573335 1.358 1 1 1 0
-0.32963049 0.24464765 1.3520001 1 1 1 0
-0.32705525 0.24464765 1.3520001 1 1 1 0
-0.32328004 0.24374288 1.3470001 1 1 1 0
-0.32071432 0.24374288 1.3470001 1 1 1 0
-0.31814858 0.24374288 1.3470001 1 1 1 0
-0.31558287 0.24374288 1.3470001 1 1 1 0
-0.31301716 0.24374288 1.3470001 1 1 1 0
-0.31045145 0.24374288 1.3470001 1 1 2 0
-0.3090286 0.24464765 1.3520001 1 1 3 0
-0.30532002 0.24374288 1.3470001 2 1 2 0
-0.30275431 0.24374288 1.3470001 1 1 1 0
-0.3001886 0.24374288 1.3470001 1 1 1 0
-0.29762289 0.24374288 1.3470001 1 1 1 0
-0.29396191 0.24283808 1.342 1 1 1 0
-0.29140574 0.24283808 1.342 1 1 1 0
-0.2888495 0.24283808 1.342 1 1 1 0
-0.28629333 0.24283808 1.342 1 1 1 0
-0.28373715 0.24283808 1.342 1 1 1 0
-0.28222859 0.24374288 1.3470001 1 1 1 0
-0.27966288 0.24374288 1.3470001 1 1 1 0
-0.27709717 0.24374288 1.3470001 1 1 1 0
-0.27453145 0.24374288 1.3470001 1 1 1 0
-0.27196574 0.24374288 1.3470001 1 1 1 0
-0.27040002 0.24464765 1.3520001 1 1 1 0
-0.2678248 0.24464765 1.3520001 1 1 2 0
-0.26426861 0.24374288 1.3470001 1 1 1 0
-0.26170287 0.24374288 1.3470001 1 1 1 0
-0.25913715 0.24374288 1.3470001 1 1 1 0
-0.25657144 0.24374288 1.3470001 1 1 1 0
-0.25400573 0.24374288 1.3470001 1 1 1 0
-0.25144002 0.24374288 1.3470001 1 1 1 0
-0.24887431 0.24374288 1.3470001 1 1 1 0
-0.24539429 0.24283808 1.342 1 1 1 0
-0.24374288 0.24374288 1.3470001 1 1 1 0
-0.2420724 0.24464765 1.3520001 1 1 1 0
-0.23949715 0.24464765 1.3520001 1 1 1 0
-0.23692192 0.24464765 1.3520001 1 1 1 0
-0.23538667 0.24573335 1.358 1 1 1 0
-0.23280001 0.24573335 1.358 1 1 1 0
-0.22919621 0.24464765 1.3520001 1 1 1 0
-0.22662097 0.24464765 1.3520001 1 1 1 0
-0.22404572 0.24464765 1.3520001 1 1 1 0
-0.22147049 0.24464765 1.3520001 1 1 1 0
-0.21808574 0.24374288 1.3470001 1 1 1 0
-0.21552002 0.24374288 1.3470001 1 1 1 0
-0.21374477 0.24464765 1.3520001 1 1 1 0
-0.21116953 0.24464765 1.3520001 1 1 1 0
-0.20952 0.24573335 1.358 1 1 1 0
-0.20693333 0.24573335 1.358 1 1 1 0
-0.20269145 0.24374288 1.3470001 1 1 1 0
-0.20086859 0.24464765 1.3520001 1 1 1 0
-0.19829336 0.24464765 1.3520001 1 1 1 0
-0.19571811 0.24464765 1.3520001 1 1 1 0
-0.19314288 0.24464765 1.3520001 1 1 1 0
-0.19056764 0.24464765 1.3520001 1 1 1 0
-0.18799239 0.24464765 1.3520001 1 1 1 0
-0.18541716 0.24464765 1.3520001 1 1 1 0
-0.18284193 0.24464765 1.3520001 1 1 1 0
-0.18026668 0.24464765 1.3520001 1 1 1 0
-0.17769144 0.24464765 1.3520001 1 1 1 0
-0.1751162 0.24464765 1.3520001 1 1 1 0
-0.17330666 0.24573335 1.358 1 1 1 0
-0.17072001 0.24573335 1.358 1 1 1 0
-0.16875239 0.24663809 1.363 1 1 1 0
-0.16554667 0.24573335 1.358 1 1 1 0
-0.16295999 0.24573335 1.358 1 1 1 0
-0.16037333 0.24573335 1.358 1 1 1 0
-0.15232573 0.23722859 1.3110001 1 1 1 0
-0.14982858 0.23722859 1.3110001 1 1 1 0
-0.14676954 0.23632382 1.3060001 1 1 1 0
-0.14428192 0.23632382 1.3060001 1 1 1 0
-0.14125143 0.23541906 1.3010001 1 1 1 0
-0.13824001 0.23451428 1.296 1 1 1 0
-0.13524762 0.23360953 1.291 1 1 1 0
-0.13278857 0.23360953 1.291 1 1 1 0
-0.12992573 0.23288572 1.2870001 1 1 1 0
-0.12747429 0.23288572 1.2870001 1 1 1 0
-0.12502286 0.23288572 1.2870001 1 1 1 0
-0.12257144 0.23288572 1.2870001 1 1 1 0
-0.11965334 0.23198096 1.2820001 1 1 1 0
-0.11721143 0.23198096 1.2820001 1 1 1 0
-0.11476953 0.23198096 1.2820001 1 1 1 0
-0.11232763 0.23198096 1.2820001 1 1 1 0
-0.10988571 0.23198096 1.2820001 1 1 1 0
-0.10744382 0.23198096 1.2820001 1 1 1 0
-0.10459238 0.23107621 1.2770001 1 1 1 0
-0.10256 0.23198096 1.2820001 1 1 1 0
-0.1001181 0.23198096 1.2820001 1 1 1 0
-0.097676195 0.23198096 1.2820001 1 1 1 0
-0.09523429 0.23198096 1.2820001 1 1 1 0
-0.092792384 0.23198096 1.2820001 1 1 1 0
-0.090702862 0.23288572 1.2870001 1 1 1 0
-0.088251427 0.23288572 1.2870001 1 1 1 0
-0.086066671 0.23360953 1.291 1 1 1 0
-0.083607621 0.23360953 1.291 1 1 1 0
-0.081148572 0.23360953 1.291 1 1 1 0
-0.078994282 0.23451428 1.296 1 1 1 0
-0.076525711 0.23451428 1.296 1 1 1 0
-0.074057147 0.23451428 1.296 1 1 1 0
-0.071864769 0.23541906 1.3010001 1 1 1 0
-0.069386669 0.23541906 1.3010001 1 1 1 0
-0.069531433 0.24464765 1.3520001 1 1 1 0
-0.0669562 0.24464765 1.3520001 1 1 1 0
-0.064380959 0.24464765 1.3520001 1 1 1 0
-0.061805718 0.24464765 1.3520001 1 1 1 0
-0.05923048 0.24464765 1.3520001 1 1 1 0
-0.056655243 0.24464765 1.3520001 1 1 1 0
-0.054080002 0.24464765 1.3520001 1 1 1 0
-0.051504768 0.24464765 1.3520001 1 1 1 0
-0.048929527 0.24464765 1.3520001 1 1 1 0
-0.046560001 0.24573335 1.358 1 1 1 0
-0.043973334 0.24573335 1.358 1 1 1 0
-0.041539047 0.24663809 1.363 1 1 1 0
-0.038942855 0.24663809 1.363 1 1 1 0
-0.036213335 0.24573335 1.358 1 1 1 0
-0.033626668 0.24573335 1.358 1 1 1 0
-0.030902859 0.24464765 1.3520001 1 1 1 0
-0.028327622 0.24464765 1.3520001 1 1 1 0
-0.025752384 0.24464765 1.3520001 1 1 1 0
-0.023177145 0.24464765 1.3520001 1 1 1 0
-0.020601906 0.24464765 1.3520001 1 1 1 0
-0.018026669 0.24464765 1.3520001 1 1 1 0
-0.015520001 0.24573335 1.358 1 1 1 0
-0.012876192 0.24464765 1.3520001 1 1 1 0
-0.010346667 0.24573335 1.358 1 1 1 0
-0.0077600004 0.24573335 1.358 1 1 1 0
-0.0051733335 0.24573335 1.358 1 1 1 0
-0.0025866667 0.24573335 1.358 1 1 1 0
0 0.24573335 1.358 1 1 1 0
0.0025866667 0.24573335 1.358 1 1 1 0
0.0051733335 0.24573335 1.358 1 1 2 0
0.007788572 0.24663809 1.363 1 1 1 0
0.010300953 0.24464765 1.3520001 1 1 1 0
0.012876192 0.24464765 1.3520001 1 1 1 0
0.015451429 0.24464765 1.3520001 1 1 1 0
0.018173333 0.24663809 1.363 1 1 1 0
0.020601906 0.24464765 1.3520001 1 1 1 0
0.023177145 0.24464765 1.3520001 1 1 1 0
0.025961904 0.24663809 1.363 1 1 1 0
0.028453335 0.24573335 1.358 1 1 1 0
0.031040002 0.24573335 1.358 1 1 1 0
0.033626668 0.24573335 1.358 1 1 1 0
0.036213335 0.24573335 1.358 1 1 1 0
0.038800001 0.24573335 1.358 1 1 1 0
0.041386668 0.24573335 1.358 1 1 1 0
0.043973334 0.24573335 1.358 1 1 1 0
0.046560001 0.24573335 1.358 1 1 1 0
0.049327619 0.24663809 1.363 1 1 1 0
0.051923808 0.24663809 1.363 1 1 1 0
0.054719999 0.24754287 1.368 1 1 1 0
0.057116192 0.24663809 1.363 1 1 1 0
0.059931431 0.24754287 1.368 1 1 1 0
0.062537141 0.24754287 1.368 1 1 1 0
0.064904764 0.24663809 1.363 1 1 1 0
0.067253336 0.24573335 1.358 1 1 1 0
0.069531433 0.24464765 1.3520001 1 1 1 0
0.072426669 0.24573335 1.358 1 1 1 0
0.075013332 0.24573335 1.358 1 1 1 0
0.077600002 0.24573335 1.358 1 1 1 0
0.080186665 0.24573335 1.358 1 1 1 0
0.082773335 0.24573335 1.358 1 1 1 0
0.085360005 0.24573335 1.358 1 1 1 0
0.087946668 0.24573335 1.358 1 1 1 0
0.090533338 0.24573335 1.358 1 1 1 0
0.093120001 0.24573335 1.358 1 1 1 0
0.095706671 0.24573335 1.358 1 1 1 0
0.098293334 0.24573335 1.358 1 1 1 0
0.10088 0.24573335 1.358 1 1 1 0
0.10346667 0.24573335 1.358 1 1 1 0
0.10605334 0.24573335 1.358 1 1 1 0
0.10864001 0.24573335 1.358 1 1 1 0
0.11122667 0.24573335 1.358 1 1 1 0
0.11381334 0.24573335 1.358 1 1 1 0
0.11682858 0.24663809 1.363 1 1 1 0
0.11898667 0.24573335 1.358 1 1 1 0
0.12202096 0.24663809 1.363 1 1 1 0
0.12416001 0.24573335 1.358 1 1 1 0
0.12721334 0.24663809 1.363 1 1 1 0
0.12933333 0.24573335 1.358 1 1 1 0
0.13192001 0.24573335 1.358 1 1 1 0
0.13450667 0.24573335 1.358 1 1 1 0
0.13709334 0.24573335 1.358 1 1 1 0
0.13968 0.24573335 1.358 1 1 1 0
0.14226668 0.24573335 1.358 1 1 1 0
0.14421335 0.24464765 1.3520001 1 1 1 0
0.14744002 0.24573335 1.358 1 1 1 0
0.15002666 0.24573335 1.358 1 1 1 0
0.15193905 0.24464765 1.3520001 1 1 1 0
0.1545143 0.24464765 1.3520001 1 1 1 0
0.15708953 0.24464765 1.3520001 1 1 1 0
0.15966477 0.24464765 1.3520001 1 1 1 0
0.16224001 0.24464765 1.3520001 1 1 1 0
0.16481525 0.24464765 1.3520001 1 1 1 0
0.16739048 0.24464765 1.3520001 1 1 1 0
0.16996573 0.24464765 1.3520001 1 1 1 0
0.17330666 0.24573335 1.358 1 1 1 0
0.1751162 0.24464765 1.3520001 1 1 1 0
0.17848 0.24573335 1.358 1 1 1 0
0.18106668 0.24573335 1.358 1 1 1 0
0.18284193 0.24464765 1.3520001 1 1 1 0
0.18541716 0.24464765 1.3520001 1 1 1 0
0.18882667 0.24573335 1.358 1 1 1 0
0.19056764 0.24464765 1.3520001 1 1 1 0
0.19400001 0.24573335 1.358 1 1 1 0
0.19658667 0.24573335 1.358 1 1 1 0
0.19990668 0.24663809 1.363 1 1 1 0
0.20176001 0.24573335 1.358 1 1 1 0
0.20434667 0.24573335 1.358 1 1 1 0
0.20693333 0.24573335 1.358 1 1 1 0
0.20952 0.24573335 1.358 1 1 1 0
0.21210667 0.24573335 1.358 1 1 1 0
0.21469334 0.24573335 1.358 1 1 1 0
0.21728002 0.24573335 1.358 1 1 1 0
0.21986666 0.24573335 1.358 1 1 1 0
0.22245334 0.24573335 1.358 1 1 1 0
0.22504 0.24573335 1.358 1 1 1 0
0.22762668 0.24573335 1.358 1 1 1 0
0.23021334 0.24573335 1.358 1 1 1 0
0.23177144 0.24464765 1.3520001 1 1 1 0
0.23434669 0.24464765 1.3520001 1 1 1 0
0.23692192 0.24464765 1.3520001 1 1 1 0
0.23949715 0.24464765 1.3520001 1 1 1 0
0.2420724 0.24464765 1.3520001 1 1 1 0
0.24464765 0.24464765 1.3520001 1 1 1 0
0.24722287 0.24464765 1.3520001 1 1 1 0
0.24979812 0.24464765 1.3520001 1 1 1 0
0.25237337 0.24464765 1.3520001 1 1 1 0
0.25494859 0.24464765 1.3520001 1 1 1 0
0.25752383 0.24464765 1.3520001 1 1 1 0
0.26009908 0.24464765 1.3520001 1 1 1 0
0.2626743 0.24464765 1.3520001 1 1 1 0
0.26524955 0.24464765 1.3520001 1 1 1 0
0.2678248 0.24464765 1.3520001 1 1 1 0
0.27040002 0.24464765 1.3520001 1 1 1 0
0.27418667 0.24573335 1.358 1 1 1 0
0.27677333 0.24573335 1.358 1 1 1 0
0.27936 0.24573335 1.358 1 1 1 0
0.28070098 0.24464765 1.3520001 1 1 1 0
0.28327623 0.24464765 1.3520001 1 1 1 0
0.28585145 0.24464765 1.3520001 1 1 1 0
0.2884267 0.24464765 1.3520001 1 1 1 0
0.29100195 0.24464765 1.3520001 1 1 1 0
0.29357716 0.24464765 1.3520001 1 1 1 0
0.29615241 0.24464765 1.3520001 1 1 1 0
0.29872763 0.24464765 1.3520001 1 1 1 0
0.30130288 0.24464765 1.3520001 1 1 1 0
0.30522668 0.24573335 1.358 1 1 1 0
0.30781335 0.24573335 1.358 1 1 1 0
0.31040001 0.24573335 1.358 1 1 1 0
0.31298667 0.24573335 1.358 1 1 1 0
0.31417906 0.24464765 1.3520001 1 1 1 0
0.31675431 0.24464765 1.3520001 1 1 1 0
0.31932953 0.24464765 1.3520001 1 1 1 0
0.32190478 0.24464765 1.3520001 1 1 1 0
0.32328004 0.24374288 1.3470001 1 1 1 0
0.32584575 0.24374288 1.3470001 1 1 1 0
0.32841146 0.24374288 1.3470001 1 1 1 0
0.33097717 0.24374288 1.3470001 1 1 1 0
0.33354288 0.24374288 1.3470001 1 1 1 0
0.33735621 0.24464765 1.3520001 1 1 1 0
0.33993146 0.24464765 1.3520001 1 1 1 0
0.34250668 0.24464765 1.3520001 1 1 1 0
0.34508193 0.24464765 1.3520001 1 1 1 0
0.34765717 0.24464765 1.3520001 1 1 1 0
0.35023239 0.24464765 1.3520001 1 1 1 0
0.35280764 0.24464765 1.3520001 1 2 1 0
0.35696 0.24573335 1.358 1 1 1 0
0.35954669 0.24573335 1.358 1 1 1 0
0.36213335 0.24573335 1.358 1 1 1 0
0.36472002 0.24573335 1.358 1 1 1 0
0.36730665 0.24573335 1.358 1 1 1 0
0.36989334 0.24573335 1.358 1 1 1 0
0.37083432 0.24464765 1.3520001 1 1 1 0
0.37340957 0.24464765 1.3520001 1 1 3 0
0.37598479 0.24464765 1.3520001 1 1 6 0
0.37856004 0.24464765 1.3520001 1 1 3 0
0.38113528 0.24464765 1.3520001 1 1 1 0
0.3837105 0.24464765 1.3520001 1 1 1 0
0.38628575 0.24464765 1.3520001 1 1 1 0
0.388861 0.24464765 1.3520001 1 1 1 0
0.39143622 0.24464765 1.3520001 1 1 1 0
0.39401147 0.24464765 1.3520001 1 1 1 0
0.39658672 0.24464765 1.3520001 1 1 1 0
0.39916193 0.24464765 1.3520001 1 1 1 0
0.40173718 0.24464765 1.3520001 1 1 1 0
0.40431243 0.24464765 1.3520001 1 1 1 0
0.40688765 0.24464765 1.3520001 1 1 1 0
0.4094629 0.24464765 1.3520001 1 1 1 0
0.41203815 0.24464765 1.3520001 1 1 1 0
0.41461337 0.24464765 1.3520001 1 1 1 0
0.41564575 0.24374288 1.3470001 1 1 1 0
0.41821146 0.24374288 1.3470001 1 1 1 0
0.42077717 0.24374288 1.3470001 1 1 1 0
0.42334288 0.24374288 1.3470001 1 1 1 0
0.4259086 0.24374288 1.3470001 1 1 1 0
0.42847431 0.24374288 1.3470001 1 1 1 0
0.43104005 0.24374288 1.3470001 1 1 1 0
0.43360576 0.24374288 1.3470001 1 1 1 0
0.43617147 0.24374288 1.3470001 1 1 1 0
-0.62620384 0.24338287 1.3310001 2 1 1 0
-0.62366861 0.24338287 1.3310001 2 1 1 0
-0.62113339 0.24338287 1.3310001 2 1 1 0
-0.6185981 0.24338287 1.3310001 4 1 1 0
-0.61606288 0.24338287 1.3310001 7 1 3 0
-0.61352766 0.24338287 1.3310001 4 1 5 0
-0.61099243 0.24338287 1.3310001 1 1 3 0
-0.60845721 0.24338287 1.3310001 1 1 1 0
-0.60819811 0.24429716 1.3360001 1 1 1 0
-0.60565335 0.24429716 1.3360001 1 1 1 0
-0.60310858 0.24429716 1.3360001 1 1 1 0
-0.60056382 0.24429716 1.3360001 1 1 1 0
-0.59801906 0.24429716 1.3360001 1 1 3 0
-0.5954743 0.24429716 1.3360001 1 1 6 0
-0.59559238 0.24539429 1.342 2 1 4 0
-0.59303617 0.24539429 1.342 1 1 2 0
-0.59048003 0.24539429 1.342 1 1 1 0
-0.59011436 0.24630859 1.3470001 1 1 1 0
-0.58754861 0.24630859 1.3470001 1 1 1 0
-0.58498293 0.24630859 1.3470001 1 1 1 0
-0.58241719 0.24630859 1.3470001 1 1 1 0
-0.57985145 0.24630859 1.3470001 1 1 1 0
-0.57728571 0.24630859 1.3470001 1 1 1 0
-0.57472003 0.24630859 1.3470001 1 1 2 0
-0.57215434 0.24630859 1.3470001 1 1 3 0
-0.5717029 0.24722287 1.3520001 1 1 4 0
-0.56702286 0.24630859 1.3470001 1 1 2 0
-0.56655246 0.24722287 1.3520001 1 1 1 0
-0.5618915 0.24630859 1.3470001 1 1 1 0
-0.55932575 0.24630859 1.3470001 1 1 1 0
-0.55469328 0.24539429 1.342 1 1 1 0
-0.54966861 0.24429716 1.3360001 1 1 1 0
-0.54958093 0.24539429 1.342 1 1 1 0
-0.54906291 0.24630859 1.3470001 1 1 1 0
-0.54649717 0.24630859 1.3470001 1 1 1 0
-0.54393148 0.24630859 1.3470001 1 1 2 0
-0.5413658 0.24630859 1.3470001 1 1 1 0
-0.53880006 0.24630859 1.3470001 1 1 1 0
-0.53623432 0.24630859 1.3470001 1 1 1 0
-0.53366864 0.24630859 1.3470001 1 1 1 0
-0.53110296 0.24630859 1.3470001 1 1 2 0
-0.52853721 0.24630859 1.3470001 1 1 3 0
-0.52597141 0.24630859 1.3470001 1 1 2 0
-0.52340573 0.24630859 1.3470001 1 1 1 0
-0.51890665 0.24539429 1.342 1 1 3 0
-0.51635051 0.24539429 1.342 1 1 5 0
-0.5137943 0.24539429 1.342 1 1 3 0
-0.50895238 0.24429716 1.3360001 2 1 1 0
-0.50640762 0.24429716 1.3360001 3 1 1 0
-0.50386286 0.24429716 1.3360001 2 1 1 0
-0.50356948 0.24539429 1.342 1 1 1 0
-0.50101334 0.24539429 1.342 2 1 1 0
-0.49845713 0.24539429 1.342 3 1 1 0
-0.49590093 0.24539429 1.342 2 1 1 0
-0.49518287 0.24630859 1.3470001 1 1 1 0
-0.49261719 0.24630859 1.3470001 1 1 1 0
-0.49187052 0.24722287 1.3520001 1 1 1 0
-0.4892953 0.24722287 1.3520001 1 1 1 0
-0.48672003 0.24722287 1.3520001 1 1 1 0
-0.48629332 0.24832001 1.358 1 1 1 0
-0.48156956 0.24722287 1.3520001 1 1 1 0
-0.47899431 0.24722287 1.3520001 1 1 1 0
-0.47641909 0.24722287 1.3520001 1 1 1 0
-0.47384384 0.24722287 1.3520001 1 1 1 0
-0.47126859 0.24722287 1.3520001 1 1 1 0
-0.46869338 0.24722287 1.3520001 1 1 1 0
-0.46818668 0.24832001 1.358 1 1 1 0
-0.46560001 0.24832001 1.358 1 1 1 0
-0.46642286 0.25014856 1.368 1 1 2 0
-0.38583618 0.20809142 1.138 1 1 4 0
-0.38232002 0.20736001 1.1340001 1 1 5 0
-0.37781337 0.20608002 1.1270001 1 1 7 0
-0.37566671 0.20608002 1.1270001 1 1 4 0
-0.37352005 0.20608002 1.1270001 1 1 1 0
-0.37005526 0.20534857 1.123 1 1 1 0
-0.3679162 0.20534857 1.123 1 1 1 0
-0.36480001 0.20480001 1.12 1 1 1 0
-0.36266664 0.20480001 1.12 1 1 1 0
-0.36053333 0.20480001 1.12 1 1 1 0
-0.35840002 0.20480001 1.12 1 1 1 0
-0.35626665 0.20480001 1.12 1 1 1 0
-0.35413334 0.20480001 1.12 1 1 1 0
-0.352 0.20480001 1.12 1 1 1 0
-0.34986669 0.20480001 1.12 1 1 1 0
-0.34866479 0.20534857 1.123 1 1 1 0
-0.34652573 0.20534857 1.123 1 1 1 0
-0.34438667 0.20534857 1.123 1 1 1 0
-0.34224764 0.20534857 1.123 1 1 1 0
-0.34010857 0.20534857 1.123 1 1 3 0
-0.33796954 0.20534857 1.123 2 7 5 0
-0.33583048 0.20534857 1.123 3 4 3 0
-0.33488002 0.20608002 1.1270001 2 1 2 0
-0.33391431 0.20681143 1.131 1 1 1 0
